ply
format ascii 1.0
comment Created by Open3D
element vertex 1812
property double x
property double y
property double z
end_header
0.225681 -1.25556 1.49004
0.225681 -1.25556 1.49912
0.225681 -1.25556 1.50821
0.225681 -1.25556 1.5173
0.225681 -1.25556 1.52638
0.225681 -1.25556 1.53547
0.225681 -1.25556 1.54455
0.225681 -1.25556 1.55364
0.225681 -1.25556 1.56272
0.225681 -1.25556 1.57181
0.225681 -1.25556 1.58089
0.225681 -1.25556 1.58998
0.225681 -1.25556 1.59907
0.225681 -1.25556 1.60815
0.225681 -1.25556 1.61724
0.225681 -1.25556 1.62632
0.225681 -1.25556 1.63541
0.225681 -1.24648 1.18113
0.225681 -1.24648 1.19021
0.225681 -1.24648 1.1993
0.225681 -1.24648 1.20839
0.225681 -1.24648 1.21747
0.225681 -1.24648 1.22656
0.225681 -1.24648 1.23564
0.225681 -1.24648 1.24473
0.225681 -1.24648 1.25381
0.225681 -1.24648 1.2629
0.225681 -1.24648 1.27198
0.225681 -1.24648 1.28107
0.225681 -1.24648 1.29016
0.225681 -1.24648 1.29924
0.225681 -1.24648 1.30833
0.225681 -1.24648 1.31741
0.225681 -1.24648 1.3265
0.225681 -1.24648 1.33558
0.225681 -1.24648 1.34467
0.225681 -1.24648 1.35375
0.225681 -1.24648 1.36284
0.225681 -1.24648 1.37193
0.225681 -1.24648 1.38101
0.225681 -1.24648 1.3901
0.225681 -1.24648 1.39918
0.225681 -1.24648 1.40827
0.225681 -1.24648 1.41735
0.225681 -1.24648 1.42644
0.225681 -1.24648 1.43553
0.225681 -1.24648 1.44461
0.225681 -1.24648 1.4537
0.225681 -1.24648 1.46278
0.225681 -1.24648 1.47187
0.225681 -1.24648 1.48095
0.225681 -1.24648 1.49004
0.225681 -1.24648 1.49912
0.225681 -1.24648 1.50821
0.225681 -1.24648 1.5173
0.225681 -1.24648 1.52638
0.225681 -1.24648 1.53547
0.225681 -1.24648 1.54455
0.225681 -1.24648 1.55364
0.225681 -1.24648 1.56272
0.225681 -1.24648 1.57181
0.225681 -1.24648 1.58089
0.225681 -1.24648 1.58998
0.225681 -1.24648 1.59907
0.225681 -1.24648 1.60815
0.225681 -1.24648 1.61724
0.225681 -1.24648 1.62632
0.225681 -1.24648 1.63541
0.225681 -1.24648 1.64449
0.225681 -1.23739 1.19021
0.225681 -1.23739 1.1993
0.225681 -1.23739 1.20839
0.225681 -1.23739 1.21747
0.225681 -1.23739 1.22656
0.225681 -1.23739 1.23564
0.225681 -1.23739 1.24473
0.225681 -1.23739 1.25381
0.225681 -1.23739 1.2629
0.225681 -1.23739 1.27198
0.225681 -1.23739 1.28107
0.225681 -1.23739 1.29016
0.225681 -1.23739 1.29924
0.225681 -1.23739 1.30833
0.225681 -1.23739 1.31741
0.225681 -1.23739 1.3265
0.225681 -1.23739 1.33558
0.225681 -1.23739 1.34467
0.225681 -1.23739 1.35375
0.225681 -1.23739 1.36284
0.225681 -1.23739 1.37193
0.225681 -1.23739 1.38101
0.225681 -1.23739 1.3901
0.225681 -1.23739 1.39918
0.225681 -1.23739 1.40827
0.225681 -1.23739 1.41735
0.225681 -1.23739 1.42644
0.225681 -1.23739 1.43553
0.225681 -1.23739 1.44461
0.225681 -1.23739 1.4537
0.225681 -1.23739 1.46278
0.225681 -1.23739 1.47187
0.225681 -1.23739 1.48095
0.225681 -1.23739 1.49004
0.225681 -1.23739 1.49912
0.225681 -1.23739 1.50821
0.225681 -1.23739 1.5173
0.225681 -1.23739 1.52638
0.225681 -1.23739 1.53547
0.225681 -1.23739 1.54455
0.225681 -1.23739 1.55364
0.225681 -1.23739 1.56272
0.225681 -1.23739 1.57181
0.225681 -1.23739 1.58089
0.225681 -1.23739 1.58998
0.225681 -1.23739 1.59907
0.225681 -1.23739 1.60815
0.225681 -1.23739 1.61724
0.225681 -1.23739 1.62632
0.225681 -1.23739 1.63541
0.225681 -1.23739 1.64449
0.225681 -1.22831 1.1993
0.225681 -1.22831 1.21747
0.225681 -1.22831 1.22656
0.225681 -1.22831 1.23564
0.225681 -1.22831 1.24473
0.225681 -1.22831 1.25381
0.225681 -1.22831 1.2629
0.225681 -1.22831 1.27198
0.225681 -1.22831 1.28107
0.225681 -1.22831 1.29016
0.225681 -1.22831 1.29924
0.225681 -1.22831 1.30833
0.225681 -1.22831 1.31741
0.225681 -1.22831 1.3265
0.225681 -1.22831 1.33558
0.225681 -1.22831 1.34467
0.225681 -1.22831 1.35375
0.225681 -1.22831 1.36284
0.225681 -1.22831 1.37193
0.225681 -1.22831 1.38101
0.225681 -1.22831 1.3901
0.225681 -1.22831 1.39918
0.225681 -1.22831 1.40827
0.225681 -1.22831 1.41735
0.225681 -1.22831 1.42644
0.225681 -1.22831 1.43553
0.225681 -1.22831 1.44461
0.225681 -1.22831 1.4537
0.225681 -1.22831 1.46278
0.225681 -1.22831 1.47187
0.225681 -1.22831 1.48095
0.225681 -1.22831 1.49004
0.225681 -1.22831 1.49912
0.225681 -1.22831 1.50821
0.225681 -1.22831 1.5173
0.225681 -1.22831 1.52638
0.225681 -1.22831 1.53547
0.225681 -1.22831 1.54455
0.225681 -1.22831 1.55364
0.225681 -1.22831 1.56272
0.225681 -1.22831 1.57181
0.225681 -1.22831 1.58089
0.225681 -1.22831 1.58998
0.225681 -1.22831 1.59907
0.225681 -1.22831 1.60815
0.225681 -1.22831 1.61724
0.225681 -1.22831 1.62632
0.225681 -1.22831 1.63541
0.225681 -1.21922 1.22656
0.225681 -1.21922 1.23564
0.225681 -1.21922 1.24473
0.225681 -1.21922 1.25381
0.225681 -1.21922 1.2629
0.225681 -1.21922 1.27198
0.225681 -1.21922 1.28107
0.225681 -1.21922 1.29016
0.225681 -1.21922 1.29924
0.225681 -1.21922 1.30833
0.225681 -1.21922 1.31741
0.225681 -1.21922 1.3265
0.225681 -1.21922 1.33558
0.225681 -1.21922 1.34467
0.225681 -1.21922 1.35375
0.225681 -1.21922 1.36284
0.225681 -1.21922 1.37193
0.225681 -1.21922 1.38101
0.225681 -1.21922 1.3901
0.225681 -1.21922 1.39918
0.225681 -1.21922 1.41735
0.225681 -1.21922 1.42644
0.225681 -1.21922 1.43553
0.225681 -1.21922 1.44461
0.225681 -1.21922 1.4537
0.225681 -1.21922 1.46278
0.225681 -1.21922 1.47187
0.225681 -1.21922 1.48095
0.225681 -1.21922 1.49004
0.225681 -1.21922 1.49912
0.225681 -1.21922 1.50821
0.225681 -1.21922 1.5173
0.225681 -1.21922 1.52638
0.225681 -1.21922 1.53547
0.225681 -1.21922 1.54455
0.225681 -1.21922 1.55364
0.225681 -1.21922 1.56272
0.225681 -1.21922 1.57181
0.225681 -1.21922 1.58089
0.225681 -1.21922 1.58998
0.225681 -1.21922 1.59907
0.225681 -1.21922 1.60815
0.225681 -1.21922 1.61724
0.225681 -1.21922 1.62632
0.225681 -1.21922 1.63541
0.225681 -1.21014 1.25381
0.225681 -1.21014 1.2629
0.225681 -1.21014 1.27198
0.225681 -1.21014 1.28107
0.225681 -1.21014 1.29016
0.225681 -1.21014 1.29924
0.225681 -1.21014 1.30833
0.225681 -1.21014 1.31741
0.225681 -1.21014 1.3265
0.225681 -1.21014 1.33558
0.225681 -1.21014 1.34467
0.225681 -1.21014 1.42644
0.225681 -1.21014 1.43553
0.225681 -1.21014 1.44461
0.225681 -1.21014 1.4537
0.225681 -1.21014 1.46278
0.225681 -1.21014 1.47187
0.225681 -1.21014 1.48095
0.225681 -1.21014 1.49004
0.225681 -1.21014 1.49912
0.225681 -1.21014 1.50821
0.225681 -1.21014 1.5173
0.225681 -1.21014 1.52638
0.225681 -1.21014 1.53547
0.225681 -1.21014 1.54455
0.225681 -1.21014 1.55364
0.225681 -1.21014 1.56272
0.225681 -1.21014 1.57181
0.225681 -1.21014 1.58089
0.225681 -1.21014 1.58998
0.225681 -1.21014 1.59907
0.225681 -1.21014 1.60815
0.225681 -1.21014 1.61724
0.225681 -1.21014 1.62632
0.225681 -1.20105 1.44461
0.225681 -1.20105 1.4537
0.225681 -1.20105 1.46278
0.225681 -1.20105 1.47187
0.225681 -1.20105 1.48095
0.225681 -1.20105 1.49004
0.225681 -1.20105 1.49912
0.225681 -1.20105 1.50821
0.225681 -1.20105 1.5173
0.225681 -1.20105 1.52638
0.225681 -1.20105 1.53547
0.225681 -1.20105 1.54455
0.225681 -1.20105 1.55364
0.225681 -1.20105 1.56272
0.225681 -1.20105 1.57181
0.225681 -1.20105 1.58089
0.225681 -1.20105 1.58998
0.225681 -1.20105 1.59907
0.225681 -1.20105 1.60815
0.225681 -1.20105 1.61724
0.225681 -1.20105 1.62632
0.225681 -1.19197 1.4537
0.225681 -1.19197 1.46278
0.225681 -1.19197 1.47187
0.225681 -1.19197 1.48095
0.225681 -1.19197 1.49004
0.225681 -1.19197 1.49912
0.225681 -1.19197 1.50821
0.225681 -1.19197 1.5173
0.225681 -1.19197 1.52638
0.225681 -1.19197 1.53547
0.225681 -1.19197 1.54455
0.225681 -1.19197 1.55364
0.225681 -1.19197 1.56272
0.225681 -1.19197 1.57181
0.225681 -1.19197 1.58089
0.225681 -1.19197 1.58998
0.225681 -1.19197 1.59907
0.225681 -1.19197 1.60815
0.225681 -1.19197 1.61724
0.225681 -1.18288 1.46278
0.225681 -1.18288 1.47187
0.225681 -1.18288 1.48095
0.225681 -1.18288 1.49004
0.225681 -1.18288 1.49912
0.225681 -1.18288 1.50821
0.225681 -1.18288 1.5173
0.225681 -1.18288 1.52638
0.225681 -1.18288 1.53547
0.225681 -1.18288 1.54455
0.225681 -1.18288 1.55364
0.225681 -1.18288 1.56272
0.225681 -1.18288 1.57181
0.225681 -1.18288 1.58089
0.225681 -1.18288 1.58998
0.225681 -1.18288 1.59907
0.225681 -1.18288 1.60815
0.225681 -1.18288 1.61724
0.225681 -1.17379 1.47187
0.225681 -1.17379 1.48095
0.225681 -1.17379 1.49004
0.225681 -1.17379 1.49912
0.225681 -1.17379 1.50821
0.225681 -1.17379 1.5173
0.225681 -1.17379 1.52638
0.225681 -1.17379 1.53547
0.225681 -1.17379 1.54455
0.225681 -1.17379 1.55364
0.225681 -1.17379 1.56272
0.225681 -1.17379 1.57181
0.225681 -1.17379 1.58089
0.225681 -1.17379 1.58998
0.225681 -1.17379 1.59907
0.225681 -1.16471 1.47187
0.225681 -1.16471 1.48095
0.225681 -1.16471 1.49004
0.225681 -1.16471 1.49912
0.225681 -1.16471 1.50821
0.225681 -1.16471 1.5173
0.225681 -1.16471 1.52638
0.225681 -1.16471 1.53547
0.225681 -1.16471 1.54455
0.225681 -1.16471 1.55364
0.225681 -1.16471 1.56272
0.225681 -1.16471 1.57181
0.225681 -1.16471 1.58089
0.225681 -1.16471 1.58998
0.225681 -1.16471 1.59907
0.225681 -1.15562 1.47187
0.225681 -1.15562 1.48095
0.225681 -1.15562 1.49004
0.225681 -1.15562 1.49912
0.225681 -1.15562 1.50821
0.225681 -1.15562 1.5173
0.225681 -1.15562 1.52638
0.225681 -1.15562 1.53547
0.225681 -1.15562 1.54455
0.225681 -1.15562 1.55364
0.225681 -1.15562 1.56272
0.225681 -1.15562 1.57181
0.225681 -1.15562 1.58089
0.225681 -1.15562 1.58998
0.225681 -1.15562 1.59907
0.225681 -1.14654 1.47187
0.225681 -1.14654 1.48095
0.225681 -1.14654 1.49004
0.225681 -1.14654 1.49912
0.225681 -1.14654 1.50821
0.225681 -1.14654 1.5173
0.225681 -1.14654 1.52638
0.225681 -1.14654 1.53547
0.225681 -1.14654 1.54455
0.225681 -1.14654 1.55364
0.225681 -1.14654 1.56272
0.225681 -1.14654 1.57181
0.225681 -1.14654 1.58089
0.225681 -1.14654 1.58998
0.225681 -1.14654 1.59907
0.225681 -1.13745 1.48095
0.225681 -1.13745 1.49004
0.225681 -1.13745 1.49912
0.225681 -1.13745 1.50821
0.225681 -1.13745 1.5173
0.225681 -1.13745 1.52638
0.225681 -1.13745 1.53547
0.225681 -1.13745 1.54455
0.225681 -1.13745 1.55364
0.225681 -1.13745 1.56272
0.225681 -1.13745 1.57181
0.225681 -1.13745 1.58089
0.225681 -1.12837 1.49004
0.225681 -1.12837 1.49912
0.225681 -1.12837 1.50821
0.225681 -1.12837 1.5173
0.225681 -1.12837 1.52638
0.225681 -1.12837 1.53547
0.225681 -1.12837 1.54455
0.225681 -1.12837 1.55364
0.225681 -1.12837 1.56272
0.225681 -1.11928 1.5173
0.225681 -1.11928 1.52638
0.225681 -1.11928 1.53547
0.225681 -1.11928 1.54455
0.225681 -1.11928 1.55364
0.234766 -1.63716 0.045428
0.234766 -1.63716 0.0545136
0.234766 -1.63716 0.0635992
0.234766 -1.63716 0.0726848
0.234766 -1.63716 0.0817704
0.234766 -1.63716 0.090856
0.234766 -1.63716 0.0999416
0.234766 -1.63716 0.109027
0.234766 -1.62807 0.0272568
0.234766 -1.62807 0.0363424
0.234766 -1.62807 0.045428
0.234766 -1.62807 0.0545136
0.234766 -1.62807 0.0635992
0.234766 -1.62807 0.0726848
0.234766 -1.62807 0.0817704
0.234766 -1.62807 0.090856
0.234766 -1.62807 0.0999416
0.234766 -1.62807 0.109027
0.234766 -1.61899 0.0181712
0.234766 -1.61899 0.0272568
0.234766 -1.61899 0.0363424
0.234766 -1.61899 0.045428
0.234766 -1.61899 0.0545136
0.234766 -1.61899 0.0635992
0.234766 -1.61899 0.0726848
0.234766 -1.61899 0.0817704
0.234766 -1.61899 0.090856
0.234766 -1.61899 0.0999416
0.234766 -1.61899 0.109027
0.234766 -1.61899 0.118113
0.234766 -1.61899 0.127198
0.234766 -1.61899 0.136284
0.234766 -1.6099 0
0.234766 -1.6099 0.0090856
0.234766 -1.6099 0.0181712
0.234766 -1.6099 0.0272568
0.234766 -1.6099 0.0363424
0.234766 -1.6099 0.045428
0.234766 -1.6099 0.0545136
0.234766 -1.6099 0.0635992
0.234766 -1.6099 0.0726848
0.234766 -1.6099 0.0817704
0.234766 -1.6099 0.090856
0.234766 -1.6099 0.0999416
0.234766 -1.6099 0.109027
0.234766 -1.6099 0.118113
0.234766 -1.6099 0.127198
0.234766 -1.60082 0
0.234766 -1.60082 0.0090856
0.234766 -1.60082 0.0181712
0.234766 -1.60082 0.0272568
0.234766 -1.60082 0.0363424
0.234766 -1.60082 0.045428
0.234766 -1.60082 0.0545136
0.234766 -1.60082 0.0635992
0.234766 -1.60082 0.0726848
0.234766 -1.60082 0.0817704
0.234766 -1.60082 0.090856
0.234766 -1.60082 0.0999416
0.234766 -1.60082 0.109027
0.234766 -1.60082 0.118113
0.234766 -1.60082 0.127198
0.234766 -1.60082 0.136284
0.234766 -1.59173 0
0.234766 -1.59173 0.0090856
0.234766 -1.59173 0.0181712
0.234766 -1.59173 0.0272568
0.234766 -1.59173 0.0363424
0.234766 -1.59173 0.045428
0.234766 -1.59173 0.0545136
0.234766 -1.59173 0.0635992
0.234766 -1.59173 0.0726848
0.234766 -1.59173 0.0817704
0.234766 -1.59173 0.090856
0.234766 -1.59173 0.0999416
0.234766 -1.59173 0.109027
0.234766 -1.59173 0.118113
0.234766 -1.59173 0.127198
0.234766 -1.59173 0.136284
0.234766 -1.59173 0.14537
0.234766 -1.59173 0.154455
0.234766 -1.58265 0
0.234766 -1.58265 0.0090856
0.234766 -1.58265 0.0181712
0.234766 -1.58265 0.0272568
0.234766 -1.58265 0.0363424
0.234766 -1.58265 0.045428
0.234766 -1.58265 0.0545136
0.234766 -1.58265 0.0635992
0.234766 -1.58265 0.0726848
0.234766 -1.58265 0.0817704
0.234766 -1.58265 0.090856
0.234766 -1.58265 0.0999416
0.234766 -1.58265 0.109027
0.234766 -1.58265 0.118113
0.234766 -1.58265 0.127198
0.234766 -1.58265 0.136284
0.234766 -1.58265 0.14537
0.234766 -1.58265 0.154455
0.234766 -1.58265 0.163541
0.234766 -1.57356 0
0.234766 -1.57356 0.0090856
0.234766 -1.57356 0.0181712
0.234766 -1.57356 0.0272568
0.234766 -1.57356 0.0363424
0.234766 -1.57356 0.045428
0.234766 -1.57356 0.0545136
0.234766 -1.57356 0.0635992
0.234766 -1.57356 0.0726848
0.234766 -1.57356 0.0817704
0.234766 -1.57356 0.090856
0.234766 -1.57356 0.0999416
0.234766 -1.57356 0.109027
0.234766 -1.57356 0.118113
0.234766 -1.57356 0.127198
0.234766 -1.57356 0.136284
0.234766 -1.57356 0.14537
0.234766 -1.57356 0.154455
0.234766 -1.56447 0
0.234766 -1.56447 0.0090856
0.234766 -1.56447 0.0181712
0.234766 -1.56447 0.0272568
0.234766 -1.56447 0.0363424
0.234766 -1.56447 0.045428
0.234766 -1.56447 0.0545136
0.234766 -1.56447 0.0635992
0.234766 -1.56447 0.0726848
0.234766 -1.56447 0.0817704
0.234766 -1.56447 0.090856
0.234766 -1.56447 0.0999416
0.234766 -1.56447 0.109027
0.234766 -1.56447 0.118113
0.234766 -1.56447 0.127198
0.234766 -1.56447 0.136284
0.234766 -1.56447 0.14537
0.234766 -1.56447 0.154455
0.234766 -1.56447 0.163541
0.234766 -1.56447 0.172626
0.234766 -1.56447 0.181712
0.234766 -1.56447 0.445195
0.234766 -1.56447 0.45428
0.234766 -1.56447 0.463366
0.234766 -1.55539 0
0.234766 -1.55539 0.0090856
0.234766 -1.55539 0.0181712
0.234766 -1.55539 0.0272568
0.234766 -1.55539 0.0363424
0.234766 -1.55539 0.045428
0.234766 -1.55539 0.0545136
0.234766 -1.55539 0.0635992
0.234766 -1.55539 0.118113
0.234766 -1.55539 0.127198
0.234766 -1.55539 0.136284
0.234766 -1.55539 0.14537
0.234766 -1.55539 0.154455
0.234766 -1.55539 0.163541
0.234766 -1.55539 0.172626
0.234766 -1.55539 0.181712
0.234766 -1.55539 0.190798
0.234766 -1.55539 0.199883
0.234766 -1.55539 0.436109
0.234766 -1.55539 0.445195
0.234766 -1.55539 0.45428
0.234766 -1.55539 0.463366
0.234766 -1.55539 0.472451
0.234766 -1.55539 0.481537
0.234766 -1.55539 0.490623
0.234766 -1.55539 0.499708
0.234766 -1.5463 0
0.234766 -1.5463 0.0090856
0.234766 -1.5463 0.0181712
0.234766 -1.5463 0.0272568
0.234766 -1.5463 0.0363424
0.234766 -1.5463 0.154455
0.234766 -1.5463 0.163541
0.234766 -1.5463 0.172626
0.234766 -1.5463 0.181712
0.234766 -1.5463 0.190798
0.234766 -1.5463 0.199883
0.234766 -1.5463 0.208969
0.234766 -1.5463 0.218054
0.234766 -1.5463 0.22714
0.234766 -1.5463 0.236226
0.234766 -1.5463 0.245311
0.234766 -1.5463 0.254397
0.234766 -1.5463 0.263482
0.234766 -1.5463 0.272568
0.234766 -1.5463 0.281654
0.234766 -1.5463 0.290739
0.234766 -1.5463 0.427023
0.234766 -1.5463 0.436109
0.234766 -1.5463 0.445195
0.234766 -1.5463 0.45428
0.234766 -1.5463 0.463366
0.234766 -1.5463 0.472451
0.234766 -1.5463 0.481537
0.234766 -1.5463 0.490623
0.234766 -1.5463 0.499708
0.234766 -1.5463 0.508794
0.234766 -1.5463 0.517879
0.234766 -1.5463 1.09027
0.234766 -1.5463 1.09936
0.234766 -1.5463 1.10844
0.234766 -1.53722 0.163541
0.234766 -1.53722 0.172626
0.234766 -1.53722 0.181712
0.234766 -1.53722 0.190798
0.234766 -1.53722 0.199883
0.234766 -1.53722 0.208969
0.234766 -1.53722 0.218054
0.234766 -1.53722 0.22714
0.234766 -1.53722 0.236226
0.234766 -1.53722 0.245311
0.234766 -1.53722 0.254397
0.234766 -1.53722 0.263482
0.234766 -1.53722 0.272568
0.234766 -1.53722 0.281654
0.234766 -1.53722 0.290739
0.234766 -1.53722 0.299825
0.234766 -1.53722 0.308911
0.234766 -1.53722 0.317996
0.234766 -1.53722 0.327082
0.234766 -1.53722 0.417938
0.234766 -1.53722 0.427023
0.234766 -1.53722 0.436109
0.234766 -1.53722 0.445195
0.234766 -1.53722 0.45428
0.234766 -1.53722 0.463366
0.234766 -1.53722 0.472451
0.234766 -1.53722 0.481537
0.234766 -1.53722 0.490623
0.234766 -1.53722 0.499708
0.234766 -1.53722 0.508794
0.234766 -1.53722 0.517879
0.234766 -1.53722 0.526965
0.234766 -1.53722 0.536051
0.234766 -1.53722 0.545136
0.234766 -1.53722 1.09027
0.234766 -1.53722 1.09936
0.234766 -1.53722 1.10844
0.234766 -1.53722 1.11753
0.234766 -1.53722 1.12661
0.234766 -1.53722 1.1357
0.234766 -1.53722 1.14479
0.234766 -1.53722 1.15387
0.234766 -1.53722 1.16296
0.234766 -1.53722 1.17204
0.234766 -1.53722 1.18113
0.234766 -1.52813 0.181712
0.234766 -1.52813 0.190798
0.234766 -1.52813 0.199883
0.234766 -1.52813 0.208969
0.234766 -1.52813 0.218054
0.234766 -1.52813 0.22714
0.234766 -1.52813 0.236226
0.234766 -1.52813 0.245311
0.234766 -1.52813 0.254397
0.234766 -1.52813 0.263482
0.234766 -1.52813 0.272568
0.234766 -1.52813 0.281654
0.234766 -1.52813 0.290739
0.234766 -1.52813 0.299825
0.234766 -1.52813 0.308911
0.234766 -1.52813 0.317996
0.234766 -1.52813 0.327082
0.234766 -1.52813 0.336167
0.234766 -1.52813 0.345253
0.234766 -1.52813 0.354339
0.234766 -1.52813 0.363424
0.234766 -1.52813 0.37251
0.234766 -1.52813 0.381595
0.234766 -1.52813 0.390681
0.234766 -1.52813 0.399767
0.234766 -1.52813 0.408852
0.234766 -1.52813 0.417938
0.234766 -1.52813 0.427023
0.234766 -1.52813 0.436109
0.234766 -1.52813 0.445195
0.234766 -1.52813 0.45428
0.234766 -1.52813 0.463366
0.234766 -1.52813 0.472451
0.234766 -1.52813 0.481537
0.234766 -1.52813 0.490623
0.234766 -1.52813 0.499708
0.234766 -1.52813 0.508794
0.234766 -1.52813 0.517879
0.234766 -1.52813 0.526965
0.234766 -1.52813 0.536051
0.234766 -1.52813 0.545136
0.234766 -1.52813 0.554222
0.234766 -1.52813 0.563307
0.234766 -1.52813 0.572393
0.234766 -1.52813 1.05393
0.234766 -1.52813 1.06302
0.234766 -1.52813 1.0721
0.234766 -1.52813 1.08119
0.234766 -1.52813 1.09027
0.234766 -1.52813 1.09936
0.234766 -1.52813 1.10844
0.234766 -1.52813 1.11753
0.234766 -1.52813 1.12661
0.234766 -1.52813 1.1357
0.234766 -1.52813 1.14479
0.234766 -1.52813 1.15387
0.234766 -1.52813 1.16296
0.234766 -1.52813 1.17204
0.234766 -1.52813 1.18113
0.234766 -1.52813 1.19021
0.234766 -1.52813 1.1993
0.234766 -1.52813 1.20839
0.234766 -1.52813 1.21747
0.234766 -1.51905 0.199883
0.234766 -1.51905 0.208969
0.234766 -1.51905 0.218054
0.234766 -1.51905 0.22714
0.234766 -1.51905 0.236226
0.234766 -1.51905 0.245311
0.234766 -1.51905 0.254397
0.234766 -1.51905 0.263482
0.234766 -1.51905 0.272568
0.234766 -1.51905 0.281654
0.234766 -1.51905 0.290739
0.234766 -1.51905 0.299825
0.234766 -1.51905 0.308911
0.234766 -1.51905 0.317996
0.234766 -1.51905 0.327082
0.234766 -1.51905 0.336167
0.234766 -1.51905 0.345253
0.234766 -1.51905 0.354339
0.234766 -1.51905 0.363424
0.234766 -1.51905 0.37251
0.234766 -1.51905 0.381595
0.234766 -1.51905 0.390681
0.234766 -1.51905 0.399767
0.234766 -1.51905 0.408852
0.234766 -1.51905 0.417938
0.234766 -1.51905 0.427023
0.234766 -1.51905 0.436109
0.234766 -1.51905 0.445195
0.234766 -1.51905 0.45428
0.234766 -1.51905 0.463366
0.234766 -1.51905 0.472451
0.234766 -1.51905 0.481537
0.234766 -1.51905 0.490623
0.234766 -1.51905 0.499708
0.234766 -1.51905 0.508794
0.234766 -1.51905 0.517879
0.234766 -1.51905 0.526965
0.234766 -1.51905 0.536051
0.234766 -1.51905 0.545136
0.234766 -1.51905 0.554222
0.234766 -1.51905 0.563307
0.234766 -1.51905 0.572393
0.234766 -1.51905 0.581479
0.234766 -1.51905 0.590564
0.234766 -1.51905 0.772276
0.234766 -1.51905 0.863132
0.234766 -1.51905 0.872218
0.234766 -1.51905 0.881303
0.234766 -1.51905 0.890389
0.234766 -1.51905 0.944903
0.234766 -1.51905 0.953988
0.234766 -1.51905 0.963074
0.234766 -1.51905 1.01759
0.234766 -1.51905 1.02667
0.234766 -1.51905 1.03576
0.234766 -1.51905 1.04484
0.234766 -1.51905 1.05393
0.234766 -1.51905 1.06302
0.234766 -1.51905 1.0721
0.234766 -1.51905 1.08119
0.234766 -1.51905 1.09027
0.234766 -1.51905 1.09936
0.234766 -1.51905 1.10844
0.234766 -1.51905 1.11753
0.234766 -1.51905 1.12661
0.234766 -1.51905 1.1357
0.234766 -1.51905 1.14479
0.234766 -1.51905 1.15387
0.234766 -1.51905 1.16296
0.234766 -1.51905 1.17204
0.234766 -1.51905 1.18113
0.234766 -1.51905 1.19021
0.234766 -1.51905 1.1993
0.234766 -1.51905 1.20839
0.234766 -1.51905 1.21747
0.234766 -1.51905 1.22656
0.234766 -1.51905 1.23564
0.234766 -1.51905 1.24473
0.234766 -1.50996 0.208969
0.234766 -1.50996 0.218054
0.234766 -1.50996 0.22714
0.234766 -1.50996 0.236226
0.234766 -1.50996 0.245311
0.234766 -1.50996 0.254397
0.234766 -1.50996 0.263482
0.234766 -1.50996 0.272568
0.234766 -1.50996 0.281654
0.234766 -1.50996 0.290739
0.234766 -1.50996 0.299825
0.234766 -1.50996 0.308911
0.234766 -1.50996 0.317996
0.234766 -1.50996 0.327082
0.234766 -1.50996 0.336167
0.234766 -1.50996 0.345253
0.234766 -1.50996 0.354339
0.234766 -1.50996 0.363424
0.234766 -1.50996 0.37251
0.234766 -1.50996 0.381595
0.234766 -1.50996 0.390681
0.234766 -1.50996 0.399767
0.234766 -1.50996 0.408852
0.234766 -1.50996 0.417938
0.234766 -1.50996 0.427023
0.234766 -1.50996 0.436109
0.234766 -1.50996 0.445195
0.234766 -1.50996 0.45428
0.234766 -1.50996 0.463366
0.234766 -1.50996 0.472451
0.234766 -1.50996 0.481537
0.234766 -1.50996 0.490623
0.234766 -1.50996 0.499708
0.234766 -1.50996 0.508794
0.234766 -1.50996 0.517879
0.234766 -1.50996 0.526965
0.234766 -1.50996 0.536051
0.234766 -1.50996 0.545136
0.234766 -1.50996 0.554222
0.234766 -1.50996 0.563307
0.234766 -1.50996 0.572393
0.234766 -1.50996 0.581479
0.234766 -1.50996 0.590564
0.234766 -1.50996 0.59965
0.234766 -1.50996 0.608735
0.234766 -1.50996 0.617821
0.234766 -1.50996 0.626907
0.234766 -1.50996 0.635992
0.234766 -1.50996 0.645078
0.234766 -1.50996 0.654163
0.234766 -1.50996 0.663249
0.234766 -1.50996 0.672335
0.234766 -1.50996 0.68142
0.234766 -1.50996 0.763191
0.234766 -1.50996 0.772276
0.234766 -1.50996 0.781362
0.234766 -1.50996 0.790447
0.234766 -1.50996 0.799533
0.234766 -1.50996 0.808619
0.234766 -1.50996 0.817704
0.234766 -1.50996 0.82679
0.234766 -1.50996 0.835875
0.234766 -1.50996 0.844961
0.234766 -1.50996 0.854047
0.234766 -1.50996 0.863132
0.234766 -1.50996 0.872218
0.234766 -1.50996 0.881303
0.234766 -1.50996 0.890389
0.234766 -1.50996 0.899475
0.234766 -1.50996 0.90856
0.234766 -1.50996 0.917646
0.234766 -1.50996 0.926732
0.234766 -1.50996 0.935817
0.234766 -1.50996 0.944903
0.234766 -1.50996 0.953988
0.234766 -1.50996 0.963074
0.234766 -1.50996 0.97216
0.234766 -1.50996 0.981245
0.234766 -1.50996 0.990331
0.234766 -1.50996 0.999416
0.234766 -1.50996 1.0085
0.234766 -1.50996 1.01759
0.234766 -1.50996 1.02667
0.234766 -1.50996 1.03576
0.234766 -1.50996 1.04484
0.234766 -1.50996 1.05393
0.234766 -1.50996 1.06302
0.234766 -1.50996 1.0721
0.234766 -1.50996 1.08119
0.234766 -1.50996 1.09027
0.234766 -1.50996 1.09936
0.234766 -1.50996 1.10844
0.234766 -1.50996 1.11753
0.234766 -1.50996 1.12661
0.234766 -1.50996 1.1357
0.234766 -1.50996 1.14479
0.234766 -1.50996 1.15387
0.234766 -1.50996 1.16296
0.234766 -1.50996 1.17204
0.234766 -1.50996 1.18113
0.234766 -1.50996 1.19021
0.234766 -1.50996 1.1993
0.234766 -1.50996 1.20839
0.234766 -1.50996 1.21747
0.234766 -1.50996 1.22656
0.234766 -1.50996 1.23564
0.234766 -1.50996 1.24473
0.234766 -1.50996 1.25381
0.234766 -1.50996 1.2629
0.234766 -1.50996 1.27198
0.234766 -1.50088 0.236226
0.234766 -1.50088 0.245311
0.234766 -1.50088 0.254397
0.234766 -1.50088 0.263482
0.234766 -1.50088 0.272568
0.234766 -1.50088 0.281654
0.234766 -1.50088 0.290739
0.234766 -1.50088 0.299825
0.234766 -1.50088 0.308911
0.234766 -1.50088 0.317996
0.234766 -1.50088 0.327082
0.234766 -1.50088 0.336167
0.234766 -1.50088 0.345253
0.234766 -1.50088 0.354339
0.234766 -1.50088 0.363424
0.234766 -1.50088 0.37251
0.234766 -1.50088 0.381595
0.234766 -1.50088 0.390681
0.234766 -1.50088 0.399767
0.234766 -1.50088 0.408852
0.234766 -1.50088 0.417938
0.234766 -1.50088 0.427023
0.234766 -1.50088 0.436109
0.234766 -1.50088 0.445195
0.234766 -1.50088 0.45428
0.234766 -1.50088 0.463366
0.234766 -1.50088 0.472451
0.234766 -1.50088 0.481537
0.234766 -1.50088 0.490623
0.234766 -1.50088 0.499708
0.234766 -1.50088 0.508794
0.234766 -1.50088 0.517879
0.234766 -1.50088 0.526965
0.234766 -1.50088 0.536051
0.234766 -1.50088 0.545136
0.234766 -1.50088 0.554222
0.234766 -1.50088 0.563307
0.234766 -1.50088 0.572393
0.234766 -1.50088 0.581479
0.234766 -1.50088 0.590564
0.234766 -1.50088 0.59965
0.234766 -1.50088 0.608735
0.234766 -1.50088 0.617821
0.234766 -1.50088 0.626907
0.234766 -1.50088 0.635992
0.234766 -1.50088 0.645078
0.234766 -1.50088 0.654163
0.234766 -1.50088 0.663249
0.234766 -1.50088 0.672335
0.234766 -1.50088 0.68142
0.234766 -1.50088 0.690506
0.234766 -1.50088 0.699591
0.234766 -1.50088 0.708677
0.234766 -1.50088 0.717763
0.234766 -1.50088 0.726848
0.234766 -1.50088 0.735934
0.234766 -1.50088 0.745019
0.234766 -1.50088 0.754105
0.234766 -1.50088 0.763191
0.234766 -1.50088 0.772276
0.234766 -1.50088 0.781362
0.234766 -1.50088 0.790447
0.234766 -1.50088 0.799533
0.234766 -1.50088 0.808619
0.234766 -1.50088 0.817704
0.234766 -1.50088 0.82679
0.234766 -1.50088 0.835875
0.234766 -1.50088 0.844961
0.234766 -1.50088 0.854047
0.234766 -1.50088 0.863132
0.234766 -1.50088 0.872218
0.234766 -1.50088 0.881303
0.234766 -1.50088 0.890389
0.234766 -1.50088 0.899475
0.234766 -1.50088 0.90856
0.234766 -1.50088 0.917646
0.234766 -1.50088 0.926732
0.234766 -1.50088 0.935817
0.234766 -1.50088 0.944903
0.234766 -1.50088 0.953988
0.234766 -1.50088 0.963074
0.234766 -1.50088 0.97216
0.234766 -1.50088 0.981245
0.234766 -1.50088 0.990331
0.234766 -1.50088 0.999416
0.234766 -1.50088 1.0085
0.234766 -1.50088 1.01759
0.234766 -1.50088 1.02667
0.234766 -1.50088 1.03576
0.234766 -1.50088 1.04484
0.234766 -1.50088 1.05393
0.234766 -1.50088 1.06302
0.234766 -1.50088 1.0721
0.234766 -1.50088 1.08119
0.234766 -1.50088 1.09027
0.234766 -1.50088 1.09936
0.234766 -1.50088 1.10844
0.234766 -1.50088 1.11753
0.234766 -1.50088 1.12661
0.234766 -1.50088 1.1357
0.234766 -1.50088 1.14479
0.234766 -1.50088 1.15387
0.234766 -1.50088 1.16296
0.234766 -1.50088 1.17204
0.234766 -1.50088 1.18113
0.234766 -1.50088 1.19021
0.234766 -1.50088 1.1993
0.234766 -1.50088 1.20839
0.234766 -1.50088 1.21747
0.234766 -1.50088 1.22656
0.234766 -1.50088 1.23564
0.234766 -1.50088 1.24473
0.234766 -1.50088 1.25381
0.234766 -1.50088 1.2629
0.234766 -1.50088 1.27198
0.234766 -1.50088 1.28107
0.234766 -1.50088 1.29016
0.234766 -1.49179 0.245311
0.234766 -1.49179 0.254397
0.234766 -1.49179 0.263482
0.234766 -1.49179 0.272568
0.234766 -1.49179 0.281654
0.234766 -1.49179 0.290739
0.234766 -1.49179 0.299825
0.234766 -1.49179 0.308911
0.234766 -1.49179 0.317996
0.234766 -1.49179 0.327082
0.234766 -1.49179 0.336167
0.234766 -1.49179 0.345253
0.234766 -1.49179 0.354339
0.234766 -1.49179 0.363424
0.234766 -1.49179 0.37251
0.234766 -1.49179 0.381595
0.234766 -1.49179 0.390681
0.234766 -1.49179 0.399767
0.234766 -1.49179 0.408852
0.234766 -1.49179 0.417938
0.234766 -1.49179 0.427023
0.234766 -1.49179 0.436109
0.234766 -1.49179 0.445195
0.234766 -1.49179 0.45428
0.234766 -1.49179 0.463366
0.234766 -1.49179 0.472451
0.234766 -1.49179 0.481537
0.234766 -1.49179 0.490623
0.234766 -1.49179 0.499708
0.234766 -1.49179 0.508794
0.234766 -1.49179 0.517879
0.234766 -1.49179 0.526965
0.234766 -1.49179 0.536051
0.234766 -1.49179 0.545136
0.234766 -1.49179 0.554222
0.234766 -1.49179 0.563307
0.234766 -1.49179 0.572393
0.234766 -1.49179 0.581479
0.234766 -1.49179 0.590564
0.234766 -1.49179 0.59965
0.234766 -1.49179 0.608735
0.234766 -1.49179 0.617821
0.234766 -1.49179 0.626907
0.234766 -1.49179 0.635992
0.234766 -1.49179 0.645078
0.234766 -1.49179 0.654163
0.234766 -1.49179 0.663249
0.234766 -1.49179 0.672335
0.234766 -1.49179 0.68142
0.234766 -1.49179 0.690506
0.234766 -1.49179 0.699591
0.234766 -1.49179 0.708677
0.234766 -1.49179 0.717763
0.234766 -1.49179 0.726848
0.234766 -1.49179 0.735934
0.234766 -1.49179 0.745019
0.234766 -1.49179 0.754105
0.234766 -1.49179 0.763191
0.234766 -1.49179 0.772276
0.234766 -1.49179 0.781362
0.234766 -1.49179 0.790447
0.234766 -1.49179 0.799533
0.234766 -1.49179 0.808619
0.234766 -1.49179 0.817704
0.234766 -1.49179 0.82679
0.234766 -1.49179 0.835875
0.234766 -1.49179 0.844961
0.234766 -1.49179 0.854047
0.234766 -1.49179 0.863132
0.234766 -1.49179 0.872218
0.234766 -1.49179 0.881303
0.234766 -1.49179 0.890389
0.234766 -1.49179 0.899475
0.234766 -1.49179 0.90856
0.234766 -1.49179 0.917646
0.234766 -1.49179 0.926732
0.234766 -1.49179 0.935817
0.234766 -1.49179 0.944903
0.234766 -1.49179 0.953988
0.234766 -1.49179 0.963074
0.234766 -1.49179 0.97216
0.234766 -1.49179 0.981245
0.234766 -1.49179 0.990331
0.234766 -1.49179 0.999416
0.234766 -1.49179 1.0085
0.234766 -1.49179 1.01759
0.234766 -1.49179 1.02667
0.234766 -1.49179 1.03576
0.234766 -1.49179 1.04484
0.234766 -1.49179 1.05393
0.234766 -1.49179 1.06302
0.234766 -1.49179 1.0721
0.234766 -1.49179 1.08119
0.234766 -1.49179 1.09027
0.234766 -1.49179 1.09936
0.234766 -1.49179 1.10844
0.234766 -1.49179 1.11753
0.234766 -1.49179 1.12661
0.234766 -1.49179 1.1357
0.234766 -1.49179 1.14479
0.234766 -1.49179 1.15387
0.234766 -1.49179 1.16296
0.234766 -1.49179 1.17204
0.234766 -1.49179 1.18113
0.234766 -1.49179 1.19021
0.234766 -1.49179 1.1993
0.234766 -1.49179 1.20839
0.234766 -1.49179 1.21747
0.234766 -1.49179 1.22656
0.234766 -1.49179 1.23564
0.234766 -1.49179 1.24473
0.234766 -1.49179 1.25381
0.234766 -1.49179 1.2629
0.234766 -1.49179 1.27198
0.234766 -1.49179 1.28107
0.234766 -1.49179 1.29016
0.234766 -1.4827 0.272568
0.234766 -1.4827 0.281654
0.234766 -1.4827 0.290739
0.234766 -1.4827 0.299825
0.234766 -1.4827 0.308911
0.234766 -1.4827 0.317996
0.234766 -1.4827 0.327082
0.234766 -1.4827 0.336167
0.234766 -1.4827 0.345253
0.234766 -1.4827 0.354339
0.234766 -1.4827 0.363424
0.234766 -1.4827 0.37251
0.234766 -1.4827 0.381595
0.234766 -1.4827 0.390681
0.234766 -1.4827 0.399767
0.234766 -1.4827 0.408852
0.234766 -1.4827 0.417938
0.234766 -1.4827 0.427023
0.234766 -1.4827 0.436109
0.234766 -1.4827 0.445195
0.234766 -1.4827 0.45428
0.234766 -1.4827 0.463366
0.234766 -1.4827 0.472451
0.234766 -1.4827 0.481537
0.234766 -1.4827 0.490623
0.234766 -1.4827 0.499708
0.234766 -1.4827 0.508794
0.234766 -1.4827 0.517879
0.234766 -1.4827 0.526965
0.234766 -1.4827 0.536051
0.234766 -1.4827 0.545136
0.234766 -1.4827 0.554222
0.234766 -1.4827 0.563307
0.234766 -1.4827 0.572393
0.234766 -1.4827 0.581479
0.234766 -1.4827 0.590564
0.234766 -1.4827 0.59965
0.234766 -1.4827 0.608735
0.234766 -1.4827 0.617821
0.234766 -1.4827 0.626907
0.234766 -1.4827 0.635992
0.234766 -1.4827 0.645078
0.234766 -1.4827 0.654163
0.234766 -1.4827 0.663249
0.234766 -1.4827 0.672335
0.234766 -1.4827 0.68142
0.234766 -1.4827 0.690506
0.234766 -1.4827 0.699591
0.234766 -1.4827 0.708677
0.234766 -1.4827 0.717763
0.234766 -1.4827 0.726848
0.234766 -1.4827 0.735934
0.234766 -1.4827 0.745019
0.234766 -1.4827 0.754105
0.234766 -1.4827 0.763191
0.234766 -1.4827 0.772276
0.234766 -1.4827 0.781362
0.234766 -1.4827 0.790447
0.234766 -1.4827 0.799533
0.234766 -1.4827 0.808619
0.234766 -1.4827 0.817704
0.234766 -1.4827 0.82679
0.234766 -1.4827 0.835875
0.234766 -1.4827 0.844961
0.234766 -1.4827 0.854047
0.234766 -1.4827 0.863132
0.234766 -1.4827 0.872218
0.234766 -1.4827 0.881303
0.234766 -1.4827 0.890389
0.234766 -1.4827 0.899475
0.234766 -1.4827 0.90856
0.234766 -1.4827 0.917646
0.234766 -1.4827 0.926732
0.234766 -1.4827 0.935817
0.234766 -1.4827 0.944903
0.234766 -1.4827 0.953988
0.234766 -1.4827 0.963074
0.234766 -1.4827 0.97216
0.234766 -1.4827 0.981245
0.234766 -1.4827 0.990331
0.234766 -1.4827 0.999416
0.234766 -1.4827 1.0085
0.234766 -1.4827 1.01759
0.234766 -1.4827 1.02667
0.234766 -1.4827 1.03576
0.234766 -1.4827 1.04484
0.234766 -1.4827 1.05393
0.234766 -1.4827 1.06302
0.234766 -1.4827 1.0721
0.234766 -1.4827 1.08119
0.234766 -1.4827 1.09027
0.234766 -1.4827 1.09936
0.234766 -1.4827 1.10844
0.234766 -1.4827 1.11753
0.234766 -1.4827 1.12661
0.234766 -1.4827 1.1357
0.234766 -1.4827 1.14479
0.234766 -1.4827 1.15387
0.234766 -1.4827 1.16296
0.234766 -1.4827 1.17204
0.234766 -1.4827 1.18113
0.234766 -1.4827 1.19021
0.234766 -1.4827 1.1993
0.234766 -1.4827 1.20839
0.234766 -1.4827 1.21747
0.234766 -1.4827 1.22656
0.234766 -1.4827 1.23564
0.234766 -1.4827 1.24473
0.234766 -1.4827 1.25381
0.234766 -1.4827 1.2629
0.234766 -1.4827 1.27198
0.234766 -1.4827 1.28107
0.234766 -1.4827 1.29016
0.234766 -1.4827 1.29924
0.234766 -1.47362 0.290739
0.234766 -1.47362 0.299825
0.234766 -1.47362 0.308911
0.234766 -1.47362 0.317996
0.234766 -1.47362 0.327082
0.234766 -1.47362 0.336167
0.234766 -1.47362 0.345253
0.234766 -1.47362 0.354339
0.234766 -1.47362 0.363424
0.234766 -1.47362 0.37251
0.234766 -1.47362 0.381595
0.234766 -1.47362 0.390681
0.234766 -1.47362 0.399767
0.234766 -1.47362 0.408852
0.234766 -1.47362 0.417938
0.234766 -1.47362 0.427023
0.234766 -1.47362 0.436109
0.234766 -1.47362 0.445195
0.234766 -1.47362 0.45428
0.234766 -1.47362 0.463366
0.234766 -1.47362 0.472451
0.234766 -1.47362 0.481537
0.234766 -1.47362 0.490623
0.234766 -1.47362 0.499708
0.234766 -1.47362 0.508794
0.234766 -1.47362 0.517879
0.234766 -1.47362 0.526965
0.234766 -1.47362 0.536051
0.234766 -1.47362 0.545136
0.234766 -1.47362 0.554222
0.234766 -1.47362 0.563307
0.234766 -1.47362 0.572393
0.234766 -1.47362 0.581479
0.234766 -1.47362 0.590564
0.234766 -1.47362 0.59965
0.234766 -1.47362 0.608735
0.234766 -1.47362 0.617821
0.234766 -1.47362 0.626907
0.234766 -1.47362 0.635992
0.234766 -1.47362 0.645078
0.234766 -1.47362 0.654163
0.234766 -1.47362 0.663249
0.234766 -1.47362 0.672335
0.234766 -1.47362 0.68142
0.234766 -1.47362 0.690506
0.234766 -1.47362 0.699591
0.234766 -1.47362 0.708677
0.234766 -1.47362 0.717763
0.234766 -1.47362 0.726848
0.234766 -1.47362 0.735934
0.234766 -1.47362 0.745019
0.234766 -1.47362 0.754105
0.234766 -1.47362 0.763191
0.234766 -1.47362 0.772276
0.234766 -1.47362 0.781362
0.234766 -1.47362 0.790447
0.234766 -1.47362 0.799533
0.234766 -1.47362 0.808619
0.234766 -1.47362 0.817704
0.234766 -1.47362 0.82679
0.234766 -1.47362 0.835875
0.234766 -1.47362 0.844961
0.234766 -1.47362 0.854047
0.234766 -1.47362 0.863132
0.234766 -1.47362 0.872218
0.234766 -1.47362 0.881303
0.234766 -1.47362 0.890389
0.234766 -1.47362 0.899475
0.234766 -1.47362 0.90856
0.234766 -1.47362 0.917646
0.234766 -1.47362 0.926732
0.234766 -1.47362 0.935817
0.234766 -1.47362 0.944903
0.234766 -1.47362 0.953988
0.234766 -1.47362 0.963074
0.234766 -1.47362 0.97216
0.234766 -1.47362 0.981245
0.234766 -1.47362 0.990331
0.234766 -1.47362 0.999416
0.234766 -1.47362 1.0085
0.234766 -1.47362 1.01759
0.234766 -1.47362 1.02667
0.234766 -1.47362 1.03576
0.234766 -1.47362 1.04484
0.234766 -1.47362 1.05393
0.234766 -1.47362 1.06302
0.234766 -1.47362 1.0721
0.234766 -1.47362 1.08119
0.234766 -1.47362 1.09027
0.234766 -1.47362 1.09936
0.234766 -1.47362 1.10844
0.234766 -1.47362 1.11753
0.234766 -1.47362 1.12661
0.234766 -1.47362 1.1357
0.234766 -1.47362 1.14479
0.234766 -1.47362 1.15387
0.234766 -1.47362 1.16296
0.234766 -1.47362 1.17204
0.234766 -1.47362 1.18113
0.234766 -1.47362 1.19021
0.234766 -1.47362 1.1993
0.234766 -1.47362 1.20839
0.234766 -1.47362 1.21747
0.234766 -1.47362 1.22656
0.234766 -1.47362 1.23564
0.234766 -1.47362 1.24473
0.234766 -1.47362 1.25381
0.234766 -1.47362 1.2629
0.234766 -1.47362 1.27198
0.234766 -1.47362 1.28107
0.234766 -1.47362 1.29016
0.234766 -1.47362 1.29924
0.234766 -1.47362 1.30833
0.234766 -1.46453 0.299825
0.234766 -1.46453 0.308911
0.234766 -1.46453 0.317996
0.234766 -1.46453 0.327082
0.234766 -1.46453 0.336167
0.234766 -1.46453 0.345253
0.234766 -1.46453 0.354339
0.234766 -1.46453 0.363424
0.234766 -1.46453 0.37251
0.234766 -1.46453 0.381595
0.234766 -1.46453 0.390681
0.234766 -1.46453 0.399767
0.234766 -1.46453 0.408852
0.234766 -1.46453 0.417938
0.234766 -1.46453 0.427023
0.234766 -1.46453 0.436109
0.234766 -1.46453 0.445195
0.234766 -1.46453 0.45428
0.234766 -1.46453 0.463366
0.234766 -1.46453 0.472451
0.234766 -1.46453 0.481537
0.234766 -1.46453 0.490623
0.234766 -1.46453 0.499708
0.234766 -1.46453 0.508794
0.234766 -1.46453 0.517879
0.234766 -1.46453 0.526965
0.234766 -1.46453 0.536051
0.234766 -1.46453 0.545136
0.234766 -1.46453 0.554222
0.234766 -1.46453 0.563307
0.234766 -1.46453 0.572393
0.234766 -1.46453 0.581479
0.234766 -1.46453 0.590564
0.234766 -1.46453 0.59965
0.234766 -1.46453 0.608735
0.234766 -1.46453 0.617821
0.234766 -1.46453 0.626907
0.234766 -1.46453 0.635992
0.234766 -1.46453 0.645078
0.234766 -1.46453 0.654163
0.234766 -1.46453 0.663249
0.234766 -1.46453 0.672335
0.234766 -1.46453 0.68142
0.234766 -1.46453 0.690506
0.234766 -1.46453 0.699591
0.234766 -1.46453 0.708677
0.234766 -1.46453 0.717763
0.234766 -1.46453 0.726848
0.234766 -1.46453 0.735934
0.234766 -1.46453 0.745019
0.234766 -1.46453 0.754105
0.234766 -1.46453 0.763191
0.234766 -1.46453 0.772276
0.234766 -1.46453 0.781362
0.234766 -1.46453 0.790447
0.234766 -1.46453 0.799533
0.234766 -1.46453 0.808619
0.234766 -1.46453 0.817704
0.234766 -1.46453 0.82679
0.234766 -1.46453 0.835875
0.234766 -1.46453 0.844961
0.234766 -1.46453 0.854047
0.234766 -1.46453 0.863132
0.234766 -1.46453 0.872218
0.234766 -1.46453 0.881303
0.234766 -1.46453 0.890389
0.234766 -1.46453 0.899475
0.234766 -1.46453 0.90856
0.234766 -1.46453 0.917646
0.234766 -1.46453 0.926732
0.234766 -1.46453 0.935817
0.234766 -1.46453 0.944903
0.234766 -1.46453 0.953988
0.234766 -1.46453 0.963074
0.234766 -1.46453 0.97216
0.234766 -1.46453 0.981245
0.234766 -1.46453 0.990331
0.234766 -1.46453 0.999416
0.234766 -1.46453 1.0085
0.234766 -1.46453 1.01759
0.234766 -1.46453 1.02667
0.234766 -1.46453 1.03576
0.234766 -1.46453 1.04484
0.234766 -1.46453 1.05393
0.234766 -1.46453 1.06302
0.234766 -1.46453 1.0721
0.234766 -1.46453 1.08119
0.234766 -1.46453 1.09027
0.234766 -1.46453 1.09936
0.234766 -1.46453 1.10844
0.234766 -1.46453 1.11753
0.234766 -1.46453 1.12661
0.234766 -1.46453 1.1357
0.234766 -1.46453 1.14479
0.234766 -1.46453 1.15387
0.234766 -1.46453 1.16296
0.234766 -1.46453 1.17204
0.234766 -1.46453 1.18113
0.234766 -1.46453 1.19021
0.234766 -1.46453 1.1993
0.234766 -1.46453 1.20839
0.234766 -1.46453 1.21747
0.234766 -1.46453 1.22656
0.234766 -1.46453 1.23564
0.234766 -1.46453 1.24473
0.234766 -1.46453 1.25381
0.234766 -1.46453 1.2629
0.234766 -1.46453 1.27198
0.234766 -1.46453 1.28107
0.234766 -1.46453 1.29016
0.234766 -1.46453 1.29924
0.234766 -1.46453 1.30833
0.234766 -1.46453 1.31741
0.234766 -1.45545 0.327082
0.234766 -1.45545 0.336167
0.234766 -1.45545 0.345253
0.234766 -1.45545 0.354339
0.234766 -1.45545 0.363424
0.234766 -1.45545 0.37251
0.234766 -1.45545 0.381595
0.234766 -1.45545 0.390681
0.234766 -1.45545 0.399767
0.234766 -1.45545 0.408852
0.234766 -1.45545 0.417938
0.234766 -1.45545 0.427023
0.234766 -1.45545 0.436109
0.234766 -1.45545 0.445195
0.234766 -1.45545 0.45428
0.234766 -1.45545 0.463366
0.234766 -1.45545 0.472451
0.234766 -1.45545 0.481537
0.234766 -1.45545 0.490623
0.234766 -1.45545 0.499708
0.234766 -1.45545 0.508794
0.234766 -1.45545 0.517879
0.234766 -1.45545 0.526965
0.234766 -1.45545 0.536051
0.234766 -1.45545 0.545136
0.234766 -1.45545 0.554222
0.234766 -1.45545 0.563307
0.234766 -1.45545 0.572393
0.234766 -1.45545 0.581479
0.234766 -1.45545 0.590564
0.234766 -1.45545 0.59965
0.234766 -1.45545 0.608735
0.234766 -1.45545 0.617821
0.234766 -1.45545 0.626907
0.234766 -1.45545 0.635992
0.234766 -1.45545 0.645078
0.234766 -1.45545 0.654163
0.234766 -1.45545 0.663249
0.234766 -1.45545 0.672335
0.234766 -1.45545 0.68142
0.234766 -1.45545 0.690506
0.234766 -1.45545 0.699591
0.234766 -1.45545 0.708677
0.234766 -1.45545 0.717763
0.234766 -1.45545 0.726848
0.234766 -1.45545 0.735934
0.234766 -1.45545 0.745019
0.234766 -1.45545 0.754105
0.234766 -1.45545 0.763191
0.234766 -1.45545 0.772276
0.234766 -1.45545 0.781362
0.234766 -1.45545 0.790447
0.234766 -1.45545 0.799533
0.234766 -1.45545 0.808619
0.234766 -1.45545 0.817704
0.234766 -1.45545 0.82679
0.234766 -1.45545 0.835875
0.234766 -1.45545 0.844961
0.234766 -1.45545 0.854047
0.234766 -1.45545 0.863132
0.234766 -1.45545 0.872218
0.234766 -1.45545 0.881303
0.234766 -1.45545 0.890389
0.234766 -1.45545 0.899475
0.234766 -1.45545 0.90856
0.234766 -1.45545 0.917646
0.234766 -1.45545 0.926732
0.234766 -1.45545 0.935817
0.234766 -1.45545 0.944903
0.234766 -1.45545 0.953988
0.234766 -1.45545 0.963074
0.234766 -1.45545 0.97216
0.234766 -1.45545 0.981245
0.234766 -1.45545 0.990331
0.234766 -1.45545 0.999416
0.234766 -1.45545 1.0085
0.234766 -1.45545 1.01759
0.234766 -1.45545 1.02667
0.234766 -1.45545 1.03576
0.234766 -1.45545 1.04484
0.234766 -1.45545 1.05393
0.234766 -1.45545 1.06302
0.234766 -1.45545 1.0721
0.234766 -1.45545 1.08119
0.234766 -1.45545 1.09027
0.234766 -1.45545 1.09936
0.234766 -1.45545 1.10844
0.234766 -1.45545 1.11753
0.234766 -1.45545 1.12661
0.234766 -1.45545 1.1357
0.234766 -1.45545 1.14479
0.234766 -1.45545 1.15387
0.234766 -1.45545 1.16296
0.234766 -1.45545 1.17204
0.234766 -1.45545 1.18113
0.234766 -1.45545 1.19021
0.234766 -1.45545 1.1993
0.234766 -1.45545 1.20839
0.234766 -1.45545 1.21747
0.234766 -1.45545 1.22656
0.234766 -1.45545 1.23564
0.234766 -1.45545 1.24473
0.234766 -1.45545 1.25381
0.234766 -1.45545 1.2629
0.234766 -1.45545 1.27198
0.234766 -1.45545 1.28107
0.234766 -1.45545 1.29016
0.234766 -1.45545 1.29924
0.234766 -1.45545 1.30833
0.234766 -1.45545 1.31741
0.234766 -1.45545 1.3265
0.234766 -1.44636 0.354339
0.234766 -1.44636 0.363424
0.234766 -1.44636 0.37251
0.234766 -1.44636 0.381595
0.234766 -1.44636 0.390681
0.234766 -1.44636 0.399767
0.234766 -1.44636 0.408852
0.234766 -1.44636 0.417938
0.234766 -1.44636 0.427023
0.234766 -1.44636 0.436109
0.234766 -1.44636 0.445195
0.234766 -1.44636 0.45428
0.234766 -1.44636 0.463366
0.234766 -1.44636 0.472451
0.234766 -1.44636 0.481537
0.234766 -1.44636 0.490623
0.234766 -1.44636 0.499708
0.234766 -1.44636 0.508794
0.234766 -1.44636 0.517879
0.234766 -1.44636 0.526965
0.234766 -1.44636 0.536051
0.234766 -1.44636 0.545136
0.234766 -1.44636 0.554222
0.234766 -1.44636 0.563307
0.234766 -1.44636 0.572393
0.234766 -1.44636 0.581479
0.234766 -1.44636 0.590564
0.234766 -1.44636 0.59965
0.234766 -1.44636 0.608735
0.234766 -1.44636 0.617821
0.234766 -1.44636 0.626907
0.234766 -1.44636 0.635992
0.234766 -1.44636 0.645078
0.234766 -1.44636 0.654163
0.234766 -1.44636 0.663249
0.234766 -1.44636 0.672335
0.234766 -1.44636 0.68142
0.234766 -1.44636 0.690506
0.234766 -1.44636 0.699591
0.234766 -1.44636 0.708677
0.234766 -1.44636 0.717763
0.234766 -1.44636 0.726848
0.234766 -1.44636 0.735934
0.234766 -1.44636 0.745019
0.234766 -1.44636 0.754105
0.234766 -1.44636 0.763191
0.234766 -1.44636 0.772276
0.234766 -1.44636 0.781362
0.234766 -1.44636 0.790447
0.234766 -1.44636 0.799533
0.234766 -1.44636 0.808619
0.234766 -1.44636 0.817704
0.234766 -1.44636 0.82679
0.234766 -1.44636 0.835875
0.234766 -1.44636 0.844961
0.234766 -1.44636 0.854047
0.234766 -1.44636 0.863132
0.234766 -1.44636 0.872218
0.234766 -1.44636 0.881303
0.234766 -1.44636 0.890389
0.234766 -1.44636 0.899475
0.234766 -1.44636 0.90856
0.234766 -1.44636 0.917646
0.234766 -1.44636 0.926732
0.234766 -1.44636 0.935817
0.234766 -1.44636 0.944903
0.234766 -1.44636 0.953988
0.234766 -1.44636 0.963074
0.234766 -1.44636 0.97216
0.234766 -1.44636 0.981245
0.234766 -1.44636 0.990331
0.234766 -1.44636 0.999416
0.234766 -1.44636 1.0085
0.234766 -1.44636 1.01759
0.234766 -1.44636 1.02667
0.234766 -1.44636 1.03576
0.234766 -1.44636 1.04484
0.234766 -1.44636 1.05393
0.234766 -1.44636 1.06302
0.234766 -1.44636 1.0721
0.234766 -1.44636 1.08119
0.234766 -1.44636 1.09027
0.234766 -1.44636 1.09936
0.234766 -1.44636 1.10844
0.234766 -1.44636 1.11753
0.234766 -1.44636 1.12661
0.234766 -1.44636 1.1357
0.234766 -1.44636 1.14479
0.234766 -1.44636 1.15387
0.234766 -1.44636 1.16296
0.234766 -1.44636 1.17204
0.234766 -1.44636 1.18113
0.234766 -1.44636 1.19021
0.234766 -1.44636 1.1993
0.234766 -1.44636 1.20839
0.234766 -1.44636 1.21747
0.234766 -1.44636 1.22656
0.234766 -1.44636 1.23564
0.234766 -1.44636 1.24473
0.234766 -1.44636 1.25381
0.234766 -1.44636 1.2629
0.234766 -1.44636 1.27198
0.234766 -1.44636 1.28107
0.234766 -1.44636 1.29016
0.234766 -1.44636 1.29924
0.234766 -1.44636 1.30833
0.234766 -1.44636 1.31741
0.234766 -1.44636 1.3265
0.234766 -1.43728 0.399767
0.234766 -1.43728 0.408852
0.234766 -1.43728 0.417938
0.234766 -1.43728 0.427023
0.234766 -1.43728 0.436109
0.234766 -1.43728 0.445195
0.234766 -1.43728 0.45428
0.234766 -1.43728 0.463366
0.234766 -1.43728 0.472451
0.234766 -1.43728 0.481537
0.234766 -1.43728 0.490623
0.234766 -1.43728 0.499708
0.234766 -1.43728 0.508794
0.234766 -1.43728 0.517879
0.234766 -1.43728 0.526965
0.234766 -1.43728 0.536051
0.234766 -1.43728 0.545136
0.234766 -1.43728 0.554222
0.234766 -1.43728 0.563307
0.234766 -1.43728 0.572393
0.234766 -1.43728 0.581479
0.234766 -1.43728 0.590564
0.234766 -1.43728 0.59965
0.234766 -1.43728 0.608735
0.234766 -1.43728 0.617821
0.234766 -1.43728 0.626907
0.234766 -1.43728 0.635992
0.234766 -1.43728 0.645078
0.234766 -1.43728 0.654163
0.234766 -1.43728 0.663249
0.234766 -1.43728 0.672335
0.234766 -1.43728 0.68142
0.234766 -1.43728 0.690506
0.234766 -1.43728 0.699591
0.234766 -1.43728 0.708677
0.234766 -1.43728 0.717763
0.234766 -1.43728 0.726848
0.234766 -1.43728 0.735934
0.234766 -1.43728 0.745019
0.234766 -1.43728 0.754105
0.234766 -1.43728 0.763191
0.234766 -1.43728 0.772276
0.234766 -1.43728 0.781362
0.234766 -1.43728 0.790447
0.234766 -1.43728 0.799533
0.234766 -1.43728 0.808619
0.234766 -1.43728 0.817704
0.234766 -1.43728 0.82679
0.234766 -1.43728 0.835875
0.234766 -1.43728 0.844961
0.234766 -1.43728 0.854047
0.234766 -1.43728 0.863132
0.234766 -1.43728 0.872218
0.234766 -1.43728 0.881303
0.234766 -1.43728 0.890389
0.234766 -1.43728 0.899475
0.234766 -1.43728 0.90856
0.234766 -1.43728 0.917646
0.234766 -1.43728 0.926732
0.234766 -1.43728 0.935817
0.234766 -1.43728 0.944903
0.234766 -1.43728 0.953988
0.234766 -1.43728 0.963074
0.234766 -1.43728 0.97216
0.234766 -1.43728 0.981245
0.234766 -1.43728 0.990331
0.234766 -1.43728 0.999416
0.234766 -1.43728 1.0085
0.234766 -1.43728 1.01759
0.234766 -1.43728 1.02667
0.234766 -1.43728 1.03576
0.234766 -1.43728 1.04484
0.234766 -1.43728 1.05393
0.234766 -1.43728 1.06302
0.234766 -1.43728 1.0721
0.234766 -1.43728 1.08119
0.234766 -1.43728 1.09027
0.234766 -1.43728 1.09936
0.234766 -1.43728 1.10844
0.234766 -1.43728 1.11753
0.234766 -1.43728 1.12661
0.234766 -1.43728 1.1357
0.234766 -1.43728 1.14479
0.234766 -1.43728 1.15387
0.234766 -1.43728 1.16296
0.234766 -1.43728 1.17204
0.234766 -1.43728 1.18113
0.234766 -1.43728 1.19021
0.234766 -1.43728 1.1993
0.234766 -1.43728 1.20839
0.234766 -1.43728 1.21747
0.234766 -1.43728 1.22656
0.234766 -1.43728 1.23564
0.234766 -1.43728 1.24473
0.234766 -1.43728 1.25381
0.234766 -1.43728 1.2629
0.234766 -1.43728 1.27198
0.234766 -1.43728 1.28107
0.234766 -1.43728 1.29016
0.234766 -1.43728 1.29924
0.234766 -1.43728 1.30833
0.234766 -1.43728 1.31741
0.234766 -1.43728 1.3265
0.234766 -1.43728 1.33558
0.234766 -1.42819 0.417938
0.234766 -1.42819 0.427023
0.234766 -1.42819 0.436109
0.234766 -1.42819 0.445195
0.234766 -1.42819 0.45428
0.234766 -1.42819 0.463366
0.234766 -1.42819 0.472451
0.234766 -1.42819 0.481537
0.234766 -1.42819 0.490623
0.234766 -1.42819 0.499708
0.234766 -1.42819 0.508794
0.234766 -1.42819 0.517879
0.234766 -1.42819 0.526965
0.234766 -1.42819 0.536051
0.234766 -1.42819 0.545136
0.234766 -1.42819 0.554222
0.234766 -1.42819 0.563307
0.234766 -1.42819 0.572393
0.234766 -1.42819 0.581479
0.234766 -1.42819 0.590564
0.234766 -1.42819 0.59965
0.234766 -1.42819 0.608735
0.234766 -1.42819 0.617821
0.234766 -1.42819 0.626907
0.234766 -1.42819 0.635992
0.234766 -1.42819 0.645078
