ply
format ascii 1.0
comment Created by Open3D
element vertex 1377
property double x
property double y
property double z
property uchar red
property uchar green
property uchar blue
end_header
0.201259 -1.37533 0.978717 34 8 6
0.201259 -1.37533 0.998291 34 7 10
0.201259 -1.37533 1.01787 37 9 3
0.201259 -1.37533 1.03744 29 6 5
0.201259 -1.37533 1.05701 38 8 4
0.201259 -1.37533 1.07659 37 7 6
0.201259 -1.37533 1.09616 25 4 13
0.201259 -1.37533 1.11574 23 6 3
0.201259 -1.37533 1.13531 45 10 10
0.201259 -1.37533 1.15489 54 11 7
0.201259 -1.37533 1.17446 44 8 7
0.201259 -1.37533 1.19403 65 13 7
0.201259 -1.37533 1.21361 64 11 6
0.201259 -1.37533 1.23318 72 12 6
0.201259 -1.37533 1.25276 92 15 11
0.201259 -1.37533 1.27233 66 9 11
0.201259 -1.37533 1.29191 47 9 7
0.201259 -1.37533 1.31148 106 25 12
0.201259 -1.37533 1.33105 162 92 92
0.201259 -1.37533 1.35063 183 112 88
0.201259 -1.37533 1.3702 196 112 91
0.201259 -1.35576 0.665527 26 7 4
0.201259 -1.35576 0.685102 25 5 6
0.201259 -1.35576 0.704676 26 6 6
0.201259 -1.35576 0.724251 29 6 4
0.201259 -1.35576 0.743825 27 6 3
0.201259 -1.35576 0.763399 28 7 6
0.201259 -1.35576 0.782974 33 7 8
0.201259 -1.35576 0.802548 29 5 9
0.201259 -1.35576 0.822122 29 6 2
0.201259 -1.35576 0.841697 31 7 5
0.201259 -1.35576 0.861271 31 7 3
0.201259 -1.35576 0.880845 30 6 4
0.201259 -1.35576 0.90042 33 7 8
0.201259 -1.35576 0.919994 31 7 4
0.201259 -1.35576 0.939568 30 7 7
0.201259 -1.35576 0.959143 29 7 5
0.201259 -1.35576 0.978717 30 6 6
0.201259 -1.35576 0.998291 29 5 5
0.201259 -1.35576 1.01787 30 6 5
0.201259 -1.35576 1.03744 29 5 9
0.201259 -1.35576 1.05701 28 6 4
0.201259 -1.35576 1.07659 27 6 6
0.201259 -1.35576 1.09616 25 4 11
0.201259 -1.35576 1.11574 24 7 1
0.201259 -1.35576 1.13531 18 8 8
0.201259 -1.35576 1.15489 17 7 4
0.201259 -1.35576 1.17446 35 16 11
0.201259 -1.35576 1.19403 41 12 10
0.201259 -1.35576 1.21361 66 11 8
0.201259 -1.35576 1.23318 82 13 11
0.201259 -1.35576 1.25276 101 16 11
0.201259 -1.35576 1.27233 75 12 9
0.201259 -1.35576 1.29191 49 8 7
0.201259 -1.35576 1.31148 78 15 11
0.201259 -1.35576 1.33105 141 82 66
0.201259 -1.35576 1.35063 135 83 76
0.201259 -1.35576 1.3702 170 106 88
0.201259 -1.35576 1.40935 115 56 36
0.201259 -1.33618 0.685102 30 7 5
0.201259 -1.33618 0.704676 29 8 7
0.201259 -1.33618 0.724251 26 5 2
0.201259 -1.33618 0.743825 27 7 10
0.201259 -1.33618 0.763399 28 7 7
0.201259 -1.33618 0.782974 31 8 12
0.201259 -1.33618 0.802548 43 10 21
0.201259 -1.33618 0.822122 49 18 25
0.201259 -1.33618 0.841697 65 24 41
0.201259 -1.33618 0.861271 69 31 50
0.201259 -1.33618 0.880845 70 30 45
0.201259 -1.33618 0.90042 65 24 37
0.201259 -1.33618 0.919994 39 11 23
0.201259 -1.33618 0.939568 32 7 5
0.201259 -1.33618 0.959143 34 7 7
0.201259 -1.33618 0.978717 35 7 8
0.201259 -1.33618 1.09616 28 4 5
0.201259 -1.33618 1.11574 25 5 3
0.201259 -1.33618 1.13531 15 4 3
0.201259 -1.33618 1.15489 28 14 12
0.201259 -1.33618 1.17446 29 14 10
0.201259 -1.33618 1.19403 52 17 18
0.201259 -1.33618 1.21361 77 12 9
0.201259 -1.33618 1.23318 92 14 9
0.201259 -1.33618 1.25276 94 13 13
0.201259 -1.33618 1.27233 79 11 11
0.201259 -1.33618 1.29191 52 9 0
0.201259 -1.33618 1.31148 54 9 9
0.201259 -1.33618 1.33105 108 50 40
0.201259 -1.33618 1.35063 112 65 56
0.201259 -1.33618 1.3702 118 70 49
0.201259 -1.33618 1.38978 125 75 68
0.201259 -1.33618 1.40935 107 70 52
0.201259 -1.33618 1.42893 117 73 63
0.201259 -1.33618 1.4485 136 78 51
0.201259 -1.33618 1.46808 167 122 82
0.201259 -1.33618 1.48765 185 130 79
0.201259 -1.33618 1.50722 108 22 17
0.201259 -1.33618 1.5268 145 22 10
0.201259 -1.33618 1.54637 168 79 99
0.201259 -1.33618 1.56595 227 148 120
0.201259 -1.33618 1.58552 151 122 97
0.201259 -1.33618 1.6051 74 89 78
0.201259 -1.31661 0.724251 105 30 25
0.201259 -1.31661 0.743825 136 55 31
0.201259 -1.31661 0.763399 146 88 73
0.201259 -1.31661 0.782974 160 102 89
0.201259 -1.31661 0.802548 172 105 84
0.201259 -1.31661 0.822122 177 111 90
0.201259 -1.31661 0.841697 173 106 86
0.201259 -1.31661 0.861271 176 105 83
0.201259 -1.31661 0.880845 158 104 83
0.201259 -1.31661 0.90042 146 88 69
0.201259 -1.31661 0.919994 134 81 61
0.201259 -1.31661 0.939568 126 82 62
0.201259 -1.31661 0.959143 122 72 61
0.201259 -1.31661 1.11574 42 18 37
0.201259 -1.31661 1.13531 28 17 13
0.201259 -1.31661 1.15489 43 22 23
0.201259 -1.31661 1.17446 51 21 14
0.201259 -1.31661 1.19403 68 45 39
0.201259 -1.31661 1.21361 68 14 12
0.201259 -1.31661 1.23318 72 13 8
0.201259 -1.31661 1.25276 75 13 4
0.201259 -1.31661 1.27233 64 12 10
0.201259 -1.31661 1.29191 73 14 7
0.201259 -1.31661 1.31148 54 12 9
0.201259 -1.31661 1.33105 81 33 26
0.201259 -1.31661 1.35063 97 59 46
0.201259 -1.31661 1.3702 93 56 45
0.201259 -1.31661 1.38978 129 79 62
0.201259 -1.31661 1.40935 116 74 67
0.201259 -1.31661 1.42893 133 89 68
0.201259 -1.31661 1.4485 154 91 72
0.201259 -1.31661 1.46808 201 111 86
0.201259 -1.31661 1.48765 220 120 90
0.201259 -1.31661 1.50722 198 94 58
0.201259 -1.31661 1.5268 120 77 50
0.201259 -1.31661 1.54637 85 48 48
0.201259 -1.31661 1.56595 92 62 32
0.201259 -1.31661 1.58552 74 79 58
0.201259 -1.29703 0.743825 203 123 96
0.201259 -1.29703 0.763399 203 129 99
0.201259 -1.29703 0.782974 208 127 100
0.201259 -1.29703 0.802548 214 129 102
0.201259 -1.29703 0.822122 210 129 104
0.201259 -1.29703 0.841697 210 124 95
0.201259 -1.29703 0.861271 180 118 91
0.201259 -1.29703 0.880845 146 83 54
0.201259 -1.29703 0.90042 125 76 48
0.201259 -1.29703 0.919994 123 70 55
0.201259 -1.29703 1.13531 79 59 56
0.201259 -1.29703 1.15489 67 38 37
0.201259 -1.29703 1.17446 86 65 53
0.201259 -1.29703 1.19403 105 69 55
0.201259 -1.29703 1.21361 71 25 26
0.201259 -1.29703 1.23318 76 12 9
0.201259 -1.29703 1.25276 65 11 10
0.201259 -1.29703 1.27233 49 11 6
0.201259 -1.29703 1.29191 50 10 5
0.201259 -1.29703 1.31148 40 7 9
0.201259 -1.29703 1.33105 60 31 14
0.201259 -1.29703 1.35063 76 47 36
0.201259 -1.29703 1.3702 80 51 41
0.201259 -1.29703 1.38978 95 50 47
0.201259 -1.29703 1.40935 145 73 61
0.201259 -1.29703 1.42893 130 72 58
0.201259 -1.29703 1.4485 154 94 70
0.201259 -1.29703 1.46808 172 104 60
0.201259 -1.29703 1.48765 148 94 56
0.201259 -1.29703 1.50722 180 111 77
0.201259 -1.29703 1.5268 178 102 72
0.201259 -1.29703 1.54637 53 30 22
0.201259 -1.29703 1.56595 37 24 19
0.201259 -1.29703 1.58552 43 34 24
0.201259 -1.29703 1.6051 63 63 42
0.201259 -1.29703 1.62467 71 77 69
0.201259 -1.27746 1.15489 117 74 52
0.201259 -1.27746 1.17446 126 78 63
0.201259 -1.27746 1.19403 132 85 65
0.201259 -1.27746 1.21361 104 76 69
0.201259 -1.27746 1.23318 75 14 9
0.201259 -1.27746 1.25276 66 11 10
0.201259 -1.27746 1.27233 59 10 6
0.201259 -1.27746 1.29191 50 8 11
0.201259 -1.27746 1.31148 46 7 6
0.201259 -1.27746 1.33105 42 11 19
0.201259 -1.27746 1.35063 52 33 27
0.201259 -1.27746 1.3702 52 22 16
0.201259 -1.27746 1.38978 105 48 33
0.201259 -1.27746 1.40935 149 99 88
0.201259 -1.27746 1.42893 152 81 76
0.201259 -1.27746 1.4485 105 42 25
0.201259 -1.27746 1.46808 74 35 28
0.201259 -1.27746 1.48765 80 46 26
0.201259 -1.27746 1.50722 185 108 78
0.201259 -1.27746 1.5268 217 121 91
0.201259 -1.27746 1.54637 213 110 75
0.201259 -1.27746 1.56595 74 41 25
0.201259 -1.27746 1.58552 42 26 22
0.201259 -1.27746 1.6051 40 26 24
0.201259 -1.27746 1.62467 62 48 48
0.201259 -1.27746 1.64424 51 26 20
0.201259 -1.25788 1.15489 121 79 57
0.201259 -1.25788 1.17446 124 80 58
0.201259 -1.25788 1.19403 132 79 62
0.201259 -1.25788 1.21361 151 90 67
0.201259 -1.25788 1.23318 151 78 74
0.201259 -1.25788 1.25276 103 24 8
0.201259 -1.25788 1.27233 66 11 10
0.201259 -1.25788 1.29191 54 9 6
0.201259 -1.25788 1.31148 47 8 4
0.201259 -1.25788 1.33105 43 9 5
0.201259 -1.25788 1.35063 51 29 20
0.201259 -1.25788 1.3702 47 26 16
0.201259 -1.25788 1.38978 100 40 31
0.201259 -1.25788 1.40935 160 100 58
0.201259 -1.25788 1.42893 196 110 83
0.201259 -1.25788 1.4485 114 50 44
0.201259 -1.25788 1.46808 98 41 61
0.201259 -1.25788 1.48765 177 106 81
0.201259 -1.25788 1.50722 179 99 77
0.201259 -1.25788 1.5268 224 139 105
0.201259 -1.25788 1.54637 127 82 82
0.201259 -1.25788 1.56595 56 36 30
0.201259 -1.25788 1.58552 43 29 25
0.201259 -1.25788 1.6051 43 34 30
0.201259 -1.25788 1.62467 58 44 34
0.201259 -1.25788 1.64424 48 33 25
0.201259 -1.23831 1.17446 114 67 54
0.201259 -1.23831 1.19403 123 78 62
0.201259 -1.23831 1.21361 155 95 74
0.201259 -1.23831 1.23318 168 97 78
0.201259 -1.23831 1.25276 160 89 64
0.201259 -1.23831 1.27233 99 24 8
0.201259 -1.23831 1.29191 64 12 3
0.201259 -1.23831 1.31148 50 11 10
0.201259 -1.23831 1.33105 48 8 9
0.201259 -1.23831 1.35063 42 9 4
0.201259 -1.23831 1.3702 49 35 27
0.201259 -1.23831 1.38978 69 38 36
0.201259 -1.23831 1.40935 67 39 29
0.201259 -1.23831 1.42893 49 34 24
0.201259 -1.23831 1.4485 63 50 50
0.201259 -1.23831 1.46808 124 67 65
0.201259 -1.23831 1.48765 148 88 65
0.201259 -1.23831 1.50722 182 104 80
0.201259 -1.23831 1.5268 141 94 67
0.201259 -1.23831 1.54637 48 40 24
0.201259 -1.23831 1.56595 36 25 22
0.201259 -1.23831 1.58552 50 35 26
0.201259 -1.23831 1.6051 52 41 34
0.201259 -1.23831 1.62467 46 31 25
0.201259 -1.23831 1.64424 41 29 28
0.201259 -1.21874 1.21361 140 85 65
0.201259 -1.21874 1.23318 169 98 78
0.201259 -1.21874 1.25276 154 95 69
0.201259 -1.21874 1.27233 97 28 11
0.201259 -1.21874 1.29191 74 14 11
0.201259 -1.21874 1.31148 65 15 11
0.201259 -1.21874 1.33105 65 21 52
0.201259 -1.21874 1.35063 76 67 63
0.201259 -1.21874 1.3702 70 67 51
0.201259 -1.21874 1.42893 52 26 21
0.201259 -1.21874 1.4485 48 33 39
0.201259 -1.21874 1.46808 122 72 61
0.201259 -1.21874 1.48765 144 90 69
0.201259 -1.21874 1.50722 154 81 60
0.201259 -1.21874 1.5268 76 56 36
0.201259 -1.21874 1.54637 33 23 19
0.201259 -1.21874 1.56595 35 22 20
0.201259 -1.21874 1.58552 38 25 27
0.201259 -1.21874 1.6051 33 25 28
0.201259 -1.21874 1.62467 32 24 21
0.201259 -1.21874 1.64424 37 25 24
0.201259 -1.19916 1.25276 52 36 44
0.201259 -1.19916 1.42893 35 27 28
0.201259 -1.19916 1.4485 85 38 26
0.201259 -1.19916 1.46808 106 68 50
0.201259 -1.19916 1.48765 135 81 50
0.201259 -1.19916 1.50722 54 43 35
0.201259 -1.19916 1.5268 24 19 16
0.201259 -1.19916 1.54637 27 22 18
0.201259 -1.19916 1.56595 32 28 21
0.201259 -1.19916 1.58552 35 26 24
0.201259 -1.19916 1.6051 37 29 26
0.201259 -1.19916 1.62467 33 24 19
0.201259 -1.17959 1.4485 62 37 27
0.201259 -1.17959 1.46808 72 50 39
0.201259 -1.17959 1.48765 66 54 36
0.201259 -1.17959 1.50722 26 17 18
0.201259 -1.17959 1.5268 18 15 13
0.201259 -1.17959 1.54637 26 21 28
0.201259 -1.17959 1.56595 29 21 19
0.201259 -1.17959 1.58552 27 21 15
0.201259 -1.17959 1.6051 31 22 20
0.201259 -1.17959 1.62467 37 25 20
0.201259 -1.16001 1.46808 15 13 13
0.201259 -1.16001 1.48765 18 19 9
0.201259 -1.16001 1.50722 22 17 9
0.201259 -1.16001 1.5268 24 22 16
0.201259 -1.16001 1.54637 29 18 20
0.201259 -1.16001 1.56595 26 23 14
0.201259 -1.16001 1.58552 36 27 30
0.201259 -1.16001 1.6051 38 28 18
0.201259 -1.14044 1.46808 21 19 18
0.201259 -1.14044 1.48765 19 14 13
0.201259 -1.14044 1.50722 21 15 16
0.201259 -1.14044 1.5268 20 19 14
0.201259 -1.14044 1.54637 31 24 20
0.201259 -1.14044 1.56595 49 28 27
0.201259 -1.14044 1.58552 61 44 49
0.201259 -1.12086 1.50722 69 68 66
0.201259 -1.12086 1.5268 61 63 51
0.201259 -1.12086 1.54637 65 71 74
0.220833 -1.64937 0.058723 57 57 47
0.220833 -1.6298 0.0195743 106 64 51
0.220833 -1.6298 0.0391487 108 63 55
0.220833 -1.6298 0.058723 110 69 53
0.220833 -1.6298 0.0782974 100 64 61
0.220833 -1.6298 0.0978717 91 64 51
0.220833 -1.61022 0 91 54 41
0.220833 -1.61022 0.0195743 86 53 43
0.220833 -1.61022 0.0391487 83 51 35
0.220833 -1.61022 0.058723 92 58 48
0.220833 -1.61022 0.0782974 95 60 52
0.220833 -1.61022 0.0978717 89 61 35
0.220833 -1.59065 0 89 53 40
0.220833 -1.59065 0.0195743 71 45 35
0.220833 -1.59065 0.0391487 69 46 35
0.220833 -1.59065 0.058723 71 47 37
0.220833 -1.59065 0.0782974 71 46 35
0.220833 -1.59065 0.0978717 61 41 27
0.220833 -1.57107 0 49 48 42
0.220833 -1.57107 0.0195743 49 46 41
0.220833 -1.57107 0.0391487 46 45 32
0.220833 -1.57107 0.058723 43 41 32
0.220833 -1.57107 0.13702 53 35 22
0.220833 -1.5515 0.45021 37 10 8
0.220833 -1.5515 0.469784 45 11 7
0.220833 -1.53192 0.215318 44 34 38
0.220833 -1.53192 0.430635 62 48 30
0.220833 -1.53192 0.45021 33 7 14
0.220833 -1.53192 0.469784 37 7 6
0.220833 -1.53192 0.489358 40 7 13
0.220833 -1.53192 0.508933 57 10 9
0.220833 -1.53192 0.528507 61 11 9
0.220833 -1.53192 0.548081 60 12 7
0.220833 -1.53192 1.09616 37 3 7
0.220833 -1.53192 1.11574 30 6 3
0.220833 -1.51235 0.234892 46 37 37
0.220833 -1.51235 0.254466 43 32 26
0.220833 -1.51235 0.274041 43 34 29
0.220833 -1.51235 0.293615 52 38 30
0.220833 -1.51235 0.313189 56 41 32
0.220833 -1.51235 0.332764 60 44 36
0.220833 -1.51235 0.352338 65 46 37
0.220833 -1.51235 0.371912 69 48 39
0.220833 -1.51235 0.391487 64 46 36
0.220833 -1.51235 0.411061 57 41 31
0.220833 -1.51235 0.430635 39 11 17
0.220833 -1.51235 0.45021 41 9 8
0.220833 -1.51235 0.469784 43 8 9
0.220833 -1.51235 0.489358 42 7 4
0.220833 -1.51235 0.508933 43 7 6
0.220833 -1.51235 0.528507 48 10 2
0.220833 -1.51235 0.548081 55 11 9
0.220833 -1.51235 0.567656 53 10 10
0.220833 -1.51235 0.58723 60 12 11
0.220833 -1.51235 0.606804 59 12 9
0.220833 -1.51235 0.763399 44 22 9
0.220833 -1.51235 0.782974 57 35 15
0.220833 -1.51235 0.802548 62 65 37
0.220833 -1.51235 0.822122 65 69 45
0.220833 -1.51235 1.07659 41 9 8
0.220833 -1.51235 1.09616 34 7 5
0.220833 -1.51235 1.11574 55 11 5
0.220833 -1.51235 1.13531 76 11 11
0.220833 -1.51235 1.15489 64 9 7
0.220833 -1.51235 1.17446 49 5 7
0.220833 -1.51235 1.19403 43 6 7
0.220833 -1.49278 0.293615 44 32 26
0.220833 -1.49278 0.313189 43 33 29
0.220833 -1.49278 0.332764 46 35 31
0.220833 -1.49278 0.352338 53 37 29
0.220833 -1.49278 0.371912 52 40 32
0.220833 -1.49278 0.391487 53 34 27
0.220833 -1.49278 0.411061 33 9 8
0.220833 -1.49278 0.430635 33 8 0
0.220833 -1.49278 0.45021 32 4 12
0.220833 -1.49278 0.469784 36 8 6
0.220833 -1.49278 0.489358 40 8 6
0.220833 -1.49278 0.508933 43 9 6
0.220833 -1.49278 0.528507 45 9 4
0.220833 -1.49278 0.548081 45 9 8
0.220833 -1.49278 0.567656 46 9 8
0.220833 -1.49278 0.58723 48 10 6
0.220833 -1.49278 0.606804 49 10 20
0.220833 -1.49278 0.626379 53 10 8
0.220833 -1.49278 0.645953 58 12 20
0.220833 -1.49278 0.665527 56 11 13
0.220833 -1.49278 0.685102 57 11 7
0.220833 -1.49278 0.704676 60 12 9
0.220833 -1.49278 0.724251 56 11 10
0.220833 -1.49278 0.743825 55 10 6
0.220833 -1.49278 0.763399 54 11 8
0.220833 -1.49278 0.782974 51 10 8
0.220833 -1.49278 0.802548 47 10 8
0.220833 -1.49278 0.822122 45 9 8
0.220833 -1.49278 0.841697 42 8 8
0.220833 -1.49278 0.861271 42 9 6
0.220833 -1.49278 0.880845 43 10 5
0.220833 -1.49278 0.90042 43 6 12
0.220833 -1.49278 0.939568 41 8 7
0.220833 -1.49278 0.959143 40 8 7
0.220833 -1.49278 0.978717 37 8 6
0.220833 -1.49278 0.998291 41 9 8
0.220833 -1.49278 1.01787 40 9 6
0.220833 -1.49278 1.03744 38 8 9
0.220833 -1.49278 1.05701 42 8 6
0.220833 -1.49278 1.07659 41 8 7
0.220833 -1.49278 1.09616 36 8 8
0.220833 -1.49278 1.11574 36 8 7
0.220833 -1.49278 1.13531 37 8 3
0.220833 -1.49278 1.15489 59 13 8
0.220833 -1.49278 1.17446 51 11 9
0.220833 -1.49278 1.19403 34 7 6
0.220833 -1.49278 1.21361 31 6 6
0.220833 -1.49278 1.23318 80 14 12
0.220833 -1.49278 1.25276 74 52 68
0.220833 -1.49278 1.27233 43 11 7
0.220833 -1.4732 0.313189 51 52 37
0.220833 -1.4732 0.332764 46 33 28
0.220833 -1.4732 0.352338 45 33 26
0.220833 -1.4732 0.371912 47 34 26
0.220833 -1.4732 0.391487 45 31 22
0.220833 -1.4732 0.411061 36 9 11
0.220833 -1.4732 0.430635 33 7 8
0.220833 -1.4732 0.45021 36 5 8
0.220833 -1.4732 0.469784 31 8 4
0.220833 -1.4732 0.489358 29 7 7
0.220833 -1.4732 0.508933 32 8 8
0.220833 -1.4732 0.528507 36 9 8
0.220833 -1.4732 0.548081 40 8 8
0.220833 -1.4732 0.567656 39 8 6
0.220833 -1.4732 0.58723 40 9 5
0.220833 -1.4732 0.606804 43 8 14
0.220833 -1.4732 0.626379 47 9 6
0.220833 -1.4732 0.645953 48 10 7
0.220833 -1.4732 0.665527 49 9 8
0.220833 -1.4732 0.685102 50 8 4
0.220833 -1.4732 0.704676 52 8 8
0.220833 -1.4732 0.724251 53 9 7
0.220833 -1.4732 0.743825 55 9 9
0.220833 -1.4732 0.763399 53 9 7
0.220833 -1.4732 0.782974 53 10 6
0.220833 -1.4732 0.802548 48 8 7
0.220833 -1.4732 0.822122 47 9 6
0.220833 -1.4732 0.841697 43 8 8
0.220833 -1.4732 0.861271 43 9 8
0.220833 -1.4732 0.880845 45 5 3
0.220833 -1.4732 0.90042 43 7 7
0.220833 -1.4732 0.919994 43 9 7
0.220833 -1.4732 0.939568 41 7 6
0.220833 -1.4732 0.959143 36 11 6
0.220833 -1.4732 0.978717 45 8 6
0.220833 -1.4732 0.998291 45 9 7
0.220833 -1.4732 1.01787 34 10 16
0.220833 -1.4732 1.03744 31 4 9
0.220833 -1.4732 1.05701 46 11 5
0.220833 -1.4732 1.07659 42 9 7
0.220833 -1.4732 1.09616 35 8 5
0.220833 -1.4732 1.11574 46 10 7
0.220833 -1.4732 1.13531 27 6 8
0.220833 -1.4732 1.15489 20 6 0
0.220833 -1.4732 1.17446 37 8 9
0.220833 -1.4732 1.19403 47 9 6
0.220833 -1.4732 1.21361 48 10 8
0.220833 -1.4732 1.23318 98 20 12
0.220833 -1.4732 1.25276 104 24 13
0.220833 -1.4732 1.27233 108 75 74
0.220833 -1.4732 1.29191 85 37 45
0.220833 -1.45363 0.352338 56 61 38
0.220833 -1.45363 0.371912 55 49 34
0.220833 -1.45363 0.391487 49 35 27
0.220833 -1.45363 0.411061 45 28 26
0.220833 -1.45363 0.430635 41 17 8
0.220833 -1.45363 0.45021 31 6 6
0.220833 -1.45363 0.469784 32 8 5
0.220833 -1.45363 0.489358 28 7 4
0.220833 -1.45363 0.508933 28 7 7
0.220833 -1.45363 0.528507 31 7 6
0.220833 -1.45363 0.548081 34 7 8
0.220833 -1.45363 0.567656 35 7 7
0.220833 -1.45363 0.58723 35 7 8
0.220833 -1.45363 0.606804 38 7 12
0.220833 -1.45363 0.626379 40 8 6
0.220833 -1.45363 0.645953 39 7 9
0.220833 -1.45363 0.665527 46 7 17
0.220833 -1.45363 0.685102 43 7 7
0.220833 -1.45363 0.704676 50 9 10
0.220833 -1.45363 0.724251 51 9 8
0.220833 -1.45363 0.743825 49 8 7
0.220833 -1.45363 0.763399 49 9 11
0.220833 -1.45363 0.782974 54 9 8
0.220833 -1.45363 0.802548 54 8 7
0.220833 -1.45363 0.822122 54 7 6
0.220833 -1.45363 0.841697 49 9 7
0.220833 -1.45363 0.861271 49 9 8
0.220833 -1.45363 0.880845 44 8 9
0.220833 -1.45363 0.90042 47 9 11
0.220833 -1.45363 0.919994 40 6 11
0.220833 -1.45363 0.939568 41 7 6
0.220833 -1.45363 0.959143 43 7 9
0.220833 -1.45363 0.978717 49 9 6
0.220833 -1.45363 0.998291 48 9 8
0.220833 -1.45363 1.01787 35 6 7
0.220833 -1.45363 1.03744 42 6 11
0.220833 -1.45363 1.05701 50 9 6
0.220833 -1.45363 1.07659 37 8 8
0.220833 -1.45363 1.09616 31 7 5
0.220833 -1.45363 1.11574 41 9 9
0.220833 -1.45363 1.13531 51 10 12
0.220833 -1.45363 1.15489 47 10 3
0.220833 -1.45363 1.17446 81 14 13
0.220833 -1.45363 1.19403 79 14 9
0.220833 -1.45363 1.21361 54 10 10
0.220833 -1.45363 1.23318 57 12 8
0.220833 -1.45363 1.25276 105 24 14
0.220833 -1.45363 1.27233 196 105 75
0.220833 -1.45363 1.29191 185 126 106
0.220833 -1.45363 1.31148 168 99 79
0.220833 -1.43405 0.45021 47 34 40
0.220833 -1.43405 0.469784 37 10 7
0.220833 -1.43405 0.489358 26 8 6
0.220833 -1.43405 0.508933 27 6 6
0.220833 -1.43405 0.528507 29 7 6
0.220833 -1.43405 0.548081 32 7 9
0.220833 -1.43405 0.567656 31 7 5
0.220833 -1.43405 0.58723 30 5 5
0.220833 -1.43405 0.606804 34 7 4
0.220833 -1.43405 0.626379 33 7 10
0.220833 -1.43405 0.645953 40 8 6
0.220833 -1.43405 0.665527 45 10 4
0.220833 -1.43405 0.685102 38 7 11
0.220833 -1.43405 0.704676 48 8 7
0.220833 -1.43405 0.724251 44 10 8
0.220833 -1.43405 0.743825 44 8 10
0.220833 -1.43405 0.763399 47 8 4
0.220833 -1.43405 0.782974 49 9 8
0.220833 -1.43405 0.802548 52 9 8
0.220833 -1.43405 0.822122 49 8 2
0.220833 -1.43405 0.841697 47 6 9
0.220833 -1.43405 0.861271 42 8 6
0.220833 -1.43405 0.880845 46 8 8
0.220833 -1.43405 0.90042 47 8 6
0.220833 -1.43405 0.919994 43 7 12
0.220833 -1.43405 0.939568 42 7 6
0.220833 -1.43405 0.959143 44 8 7
0.220833 -1.43405 0.978717 47 8 17
0.220833 -1.43405 0.998291 45 7 7
0.220833 -1.43405 1.01787 37 9 8
0.220833 -1.43405 1.03744 42 7 7
0.220833 -1.43405 1.05701 44 8 3
0.220833 -1.43405 1.07659 36 7 6
0.220833 -1.43405 1.09616 34 6 8
0.220833 -1.43405 1.11574 34 5 7
0.220833 -1.43405 1.13531 40 9 8
0.220833 -1.43405 1.15489 58 10 9
0.220833 -1.43405 1.17446 81 11 12
0.220833 -1.43405 1.19403 88 17 9
0.220833 -1.43405 1.21361 74 12 9
0.220833 -1.43405 1.23318 71 11 10
0.220833 -1.43405 1.25276 69 12 11
0.220833 -1.43405 1.27233 148 67 20
0.220833 -1.43405 1.29191 230 145 122
0.220833 -1.43405 1.31148 223 142 103
0.220833 -1.43405 1.33105 211 129 109
0.220833 -1.41448 0.45021 59 68 58
0.220833 -1.41448 0.469784 45 31 31
0.220833 -1.41448 0.489358 19 5 4
0.220833 -1.41448 0.508933 18 5 7
0.220833 -1.41448 0.528507 22 4 7
0.220833 -1.41448 0.548081 28 7 7
0.220833 -1.41448 0.567656 27 7 9
0.220833 -1.41448 0.58723 31 7 7
0.220833 -1.41448 0.606804 31 8 6
0.220833 -1.41448 0.626379 32 7 8
0.220833 -1.41448 0.645953 35 7 5
0.220833 -1.41448 0.665527 37 9 8
0.220833 -1.41448 0.685102 37 8 9
0.220833 -1.41448 0.704676 39 8 5
0.220833 -1.41448 0.724251 36 7 6
0.220833 -1.41448 0.743825 42 7 7
0.220833 -1.41448 0.763399 45 9 0
0.220833 -1.41448 0.782974 45 7 8
0.220833 -1.41448 0.802548 44 8 6
0.220833 -1.41448 0.822122 47 7 5
0.220833 -1.41448 0.841697 47 7 8
0.220833 -1.41448 0.861271 41 10 6
0.220833 -1.41448 0.880845 45 9 8
0.220833 -1.41448 0.90042 42 8 7
0.220833 -1.41448 0.919994 46 9 6
0.220833 -1.41448 0.939568 38 7 6
0.220833 -1.41448 0.959143 43 9 5
0.220833 -1.41448 0.978717 43 8 12
0.220833 -1.41448 0.998291 46 8 7
0.220833 -1.41448 1.01787 36 7 7
0.220833 -1.41448 1.03744 34 6 13
0.220833 -1.41448 1.05701 33 6 7
0.220833 -1.41448 1.07659 34 7 3
0.220833 -1.41448 1.09616 30 7 6
0.220833 -1.41448 1.11574 32 6 9
0.220833 -1.41448 1.13531 41 9 6
0.220833 -1.41448 1.15489 37 6 10
0.220833 -1.41448 1.17446 82 13 10
0.220833 -1.41448 1.19403 88 15 7
0.220833 -1.41448 1.21361 62 9 9
0.220833 -1.41448 1.23318 75 13 10
0.220833 -1.41448 1.25276 90 14 8
0.220833 -1.41448 1.27233 105 22 42
0.220833 -1.41448 1.29191 211 134 106
0.220833 -1.41448 1.31148 222 142 117
0.220833 -1.41448 1.33105 216 142 110
0.220833 -1.3949 0.45021 48 36 30
0.220833 -1.3949 0.469784 25 7 8
0.220833 -1.3949 0.489358 19 6 3
0.220833 -1.3949 0.508933 17 5 9
0.220833 -1.3949 0.528507 21 6 5
0.220833 -1.3949 0.548081 23 6 7
0.220833 -1.3949 0.567656 25 6 10
0.220833 -1.3949 0.58723 27 8 8
0.220833 -1.3949 0.606804 26 9 8
0.220833 -1.3949 0.626379 30 7 11
0.220833 -1.3949 0.645953 30 7 8
0.220833 -1.3949 0.665527 32 8 10
0.220833 -1.3949 0.685102 36 5 13
0.220833 -1.3949 0.704676 35 7 6
0.220833 -1.3949 0.724251 33 5 7
0.220833 -1.3949 0.743825 38 7 5
0.220833 -1.3949 0.763399 40 6 4
0.220833 -1.3949 0.782974 37 6 7
0.220833 -1.3949 0.802548 37 8 7
0.220833 -1.3949 0.822122 40 7 7
0.220833 -1.3949 0.841697 39 8 9
0.220833 -1.3949 0.861271 37 7 10
0.220833 -1.3949 0.880845 42 7 5
0.220833 -1.3949 0.90042 42 8 7
0.220833 -1.3949 0.919994 37 7 4
0.220833 -1.3949 0.939568 37 6 8
0.220833 -1.3949 0.959143 40 7 5
0.220833 -1.3949 0.978717 40 8 7
0.220833 -1.3949 0.998291 42 7 6
0.220833 -1.3949 1.01787 30 5 5
0.220833 -1.3949 1.03744 35 7 7
0.220833 -1.3949 1.05701 34 6 8
0.220833 -1.3949 1.07659 29 6 6
0.220833 -1.3949 1.09616 26 5 5
0.220833 -1.3949 1.11574 35 7 6
0.220833 -1.3949 1.13531 47 9 10
0.220833 -1.3949 1.15489 44 8 5
0.220833 -1.3949 1.17446 58 10 10
0.220833 -1.3949 1.19403 64 11 5
0.220833 -1.3949 1.21361 69 13 10
0.220833 -1.3949 1.23318 68 13 8
0.220833 -1.3949 1.25276 76 12 8
0.220833 -1.3949 1.27233 91 16 8
0.220833 -1.3949 1.29191 74 16 12
0.220833 -1.3949 1.31148 194 85 60
0.220833 -1.3949 1.33105 225 138 103
0.220833 -1.3949 1.35063 225 138 105
0.220833 -1.3949 1.3702 227 135 100
0.220833 -1.37533 0.45021 53 50 52
0.220833 -1.37533 0.469784 37 15 19
0.220833 -1.37533 0.528507 27 7 5
0.220833 -1.37533 0.548081 25 6 6
0.220833 -1.37533 0.567656 25 6 7
0.220833 -1.37533 0.58723 26 8 6
0.220833 -1.37533 0.606804 27 7 8
0.220833 -1.37533 0.626379 25 6 6
0.220833 -1.37533 0.645953 26 7 3
0.220833 -1.37533 0.665527 33 6 7
0.220833 -1.37533 0.685102 35 6 6
0.220833 -1.37533 0.704676 34 7 8
0.220833 -1.37533 0.724251 35 7 5
0.220833 -1.37533 0.743825 35 6 7
0.220833 -1.37533 0.763399 36 7 4
0.220833 -1.37533 0.782974 34 7 9
0.220833 -1.37533 0.802548 33 7 5
0.220833 -1.37533 0.822122 35 7 5
0.220833 -1.37533 0.841697 33 8 6
0.220833 -1.37533 0.861271 34 7 11
0.220833 -1.37533 0.880845 38 11 6
0.220833 -1.37533 0.90042 40 7 8
0.220833 -1.37533 0.919994 37 6 8
0.220833 -1.37533 0.939568 34 6 6
0.220833 -1.37533 0.959143 34 5 8
0.220833 -1.37533 0.978717 34 7 5
0.220833 -1.37533 0.998291 37 7 8
0.220833 -1.37533 1.01787 29 6 7
0.220833 -1.37533 1.03744 33 8 4
0.220833 -1.37533 1.05701 37 9 6
0.220833 -1.37533 1.07659 25 4 13
0.220833 -1.37533 1.09616 23 6 3
0.220833 -1.37533 1.11574 45 8 7
0.220833 -1.37533 1.13531 54 11 7
0.220833 -1.37533 1.15489 44 8 7
0.220833 -1.37533 1.17446 65 11 10
0.220833 -1.37533 1.19403 69 13 6
0.220833 -1.37533 1.21361 64 12 6
0.220833 -1.37533 1.23318 78 12 8
0.220833 -1.37533 1.25276 61 12 12
0.220833 -1.37533 1.27233 52 11 7
0.220833 -1.37533 1.29191 81 17 12
0.220833 -1.37533 1.31148 182 68 53
0.220833 -1.37533 1.33105 205 123 89
0.220833 -1.37533 1.35063 197 112 91
0.220833 -1.37533 1.3702 209 124 92
0.220833 -1.35576 0.469784 47 53 60
0.220833 -1.35576 0.606804 28 7 8
0.220833 -1.35576 0.626379 28 8 8
0.220833 -1.35576 0.645953 26 7 4
0.220833 -1.35576 0.665527 25 5 6
0.220833 -1.35576 0.685102 26 6 6
0.220833 -1.35576 0.704676 29 6 4
0.220833 -1.35576 0.724251 27 6 3
0.220833 -1.35576 0.743825 28 7 6
0.220833 -1.35576 0.763399 33 7 6
0.220833 -1.35576 0.782974 33 6 7
0.220833 -1.35576 0.802548 29 6 8
0.220833 -1.35576 0.822122 33 7 5
0.220833 -1.35576 0.841697 31 6 5
0.220833 -1.35576 0.861271 27 6 8
0.220833 -1.35576 0.880845 33 7 6
0.220833 -1.35576 0.90042 31 6 6
0.220833 -1.35576 0.919994 30 7 5
0.220833 -1.35576 0.939568 29 5 6
0.220833 -1.35576 0.959143 30 6 6
0.220833 -1.35576 0.978717 29 5 5
0.220833 -1.35576 0.998291 28 6 5
0.220833 -1.35576 1.01787 29 6 6
0.220833 -1.35576 1.03744 28 6 4
0.220833 -1.35576 1.05701 27 6 6
0.220833 -1.35576 1.07659 26 7 11
0.220833 -1.35576 1.09616 25 6 1
0.220833 -1.35576 1.11574 45 10 8
0.220833 -1.35576 1.13531 44 10 4
0.220833 -1.35576 1.15489 39 10 11
0.220833 -1.35576 1.17446 45 11 10
0.220833 -1.35576 1.19403 63 12 6
0.220833 -1.35576 1.21361 64 13 11
0.220833 -1.35576 1.23318 93 15 11
0.220833 -1.35576 1.25276 71 14 8
0.220833 -1.35576 1.27233 49 8 7
0.220833 -1.35576 1.29191 52 9 11
0.220833 -1.35576 1.31148 125 63 66
0.220833 -1.35576 1.33105 135 83 70
0.220833 -1.35576 1.35063 170 106 84
0.220833 -1.35576 1.3702 180 108 76
0.220833 -1.35576 1.38978 97 56 60
0.220833 -1.35576 1.40935 161 124 106
0.220833 -1.35576 1.42893 215 136 106
0.220833 -1.35576 1.54637 228 157 124
0.220833 -1.33618 0.645953 34 7 9
0.220833 -1.33618 0.665527 30 7 5
0.220833 -1.33618 0.685102 29 8 7
0.220833 -1.33618 0.704676 26 5 2
0.220833 -1.33618 0.724251 27 7 10
0.220833 -1.33618 0.743825 28 6 6
0.220833 -1.33618 0.763399 31 6 4
0.220833 -1.33618 0.782974 43 6 3
0.220833 -1.33618 0.802548 49 6 6
0.220833 -1.33618 0.822122 65 8 5
0.220833 -1.33618 0.841697 69 8 5
0.220833 -1.33618 0.861271 70 8 7
0.220833 -1.33618 0.880845 65 8 0
0.220833 -1.33618 0.90042 39 8 6
0.220833 -1.33618 0.919994 32 7 5
0.220833 -1.33618 0.939568 34 7 7
0.220833 -1.33618 0.959143 34 7 8
0.220833 -1.33618 0.978717 34 8 6
0.220833 -1.33618 0.998291 38 8 4
0.220833 -1.33618 1.01787 40 9 8
0.220833 -1.33618 1.03744 35 8 7
0.220833 -1.33618 1.05701 28 6 7
0.220833 -1.33618 1.07659 22 6 2
0.220833 -1.33618 1.09616 24 6 3
0.220833 -1.33618 1.11574 11 5 3
0.220833 -1.33618 1.13531 22 10 10
0.220833 -1.33618 1.15489 33 17 10
0.220833 -1.33618 1.17446 38 20 18
0.220833 -1.33618 1.19403 77 12 12
0.220833 -1.33618 1.21361 92 14 9
0.220833 -1.33618 1.23318 101 15 13
0.220833 -1.33618 1.25276 79 13 7
0.220833 -1.33618 1.27233 52 9 9
0.220833 -1.33618 1.29191 45 9 7
0.220833 -1.33618 1.31148 86 35 45
0.220833 -1.33618 1.33105 112 62 46
0.220833 -1.33618 1.35063 118 73 63
0.220833 -1.33618 1.3702 125 82 68
0.220833 -1.33618 1.38978 117 72 48
0.220833 -1.33618 1.40935 111 73 63
0.220833 -1.33618 1.42893 117 78 51
0.220833 -1.33618 1.4485 167 97 65
0.220833 -1.33618 1.46808 196 136 99
0.220833 -1.33618 1.48765 111 20 14
0.220833 -1.33618 1.50722 96 21 15
0.220833 -1.33618 1.5268 103 50 32
0.220833 -1.33618 1.54637 234 154 120
0.220833 -1.33618 1.56595 255 152 97
0.220833 -1.33618 1.58552 208 125 78
0.220833 -1.33618 1.6051 88 75 71
0.220833 -1.31661 0.685102 89 21 10
0.220833 -1.31661 0.704676 105 30 25
0.220833 -1.31661 0.724251 119 43 31
0.220833 -1.31661 0.743825 146 71 47
0.220833 -1.31661 0.763399 160 78 62
0.220833 -1.31661 0.782974 172 91 66
0.220833 -1.31661 0.802548 177 96 81
0.220833 -1.31661 0.822122 173 98 78
0.220833 -1.31661 0.841697 176 96 78
0.220833 -1.31661 0.861271 158 98 73
0.220833 -1.31661 0.880845 146 88 69
0.220833 -1.31661 0.90042 134 83 63
0.220833 -1.31661 0.919994 133 82 62
0.220833 -1.31661 0.939568 122 78 62
0.220833 -1.31661 0.959143 107 66 63
0.220833 -1.31661 0.978717 95 48 54
0.220833 -1.31661 1.09616 26 18 37
0.220833 -1.31661 1.11574 18 6 13
0.220833 -1.31661 1.13531 43 22 23
0.220833 -1.31661 1.15489 51 21 14
0.220833 -1.31661 1.17446 69 37 29
0.220833 -1.31661 1.19403 68 14 8
0.220833 -1.31661 1.21361 72 11 8
0.220833 -1.31661 1.23318 65 14 14
0.220833 -1.31661 1.25276 66 13 4
0.220833 -1.31661 1.27233 73 8 10
0.220833 -1.31661 1.29191 54 9 7
0.220833 -1.31661 1.31148 64 33 26
0.220833 -1.31661 1.33105 96 59 46
0.220833 -1.31661 1.35063 93 54 42
0.220833 -1.31661 1.3702 112 65 60
0.220833 -1.31661 1.38978 118 75 54
0.220833 -1.31661 1.40935 132 90 68
0.220833 -1.31661 1.42893 144 93 72
0.220833 -1.31661 1.4485 158 106 86
0.220833 -1.31661 1.46808 174 110 94
0.220833 -1.31661 1.48765 136 86 75
0.220833 -1.31661 1.50722 120 77 65
0.220833 -1.31661 1.5268 85 48 41
0.220833 -1.31661 1.54637 87 68 48
0.220833 -1.31661 1.56595 88 80 68
0.220833 -1.31661 1.58552 77 83 72
0.220833 -1.29703 0.724251 203 113 95
0.220833 -1.29703 0.743825 203 117 98
0.220833 -1.29703 0.763399 208 123 97
0.220833 -1.29703 0.782974 214 122 94
0.220833 -1.29703 0.802548 210 118 93
0.220833 -1.29703 0.822122 210 116 93
0.220833 -1.29703 0.841697 180 108 89
0.220833 -1.29703 0.861271 146 83 54
0.220833 -1.29703 0.880845 125 76 48
0.220833 -1.29703 0.90042 123 70 55
0.220833 -1.29703 0.919994 129 78 55
0.220833 -1.29703 0.939568 132 80 60
0.220833 -1.29703 1.11574 79 24 18
0.220833 -1.29703 1.13531 67 27 26
0.220833 -1.29703 1.15489 86 48 28
0.220833 -1.29703 1.17446 105 57 46
0.220833 -1.29703 1.19403 82 30 14
0.220833 -1.29703 1.21361 76 11 4
0.220833 -1.29703 1.23318 65 10 9
0.220833 -1.29703 1.25276 56 11 6
0.220833 -1.29703 1.27233 50 10 5
0.220833 -1.29703 1.29191 52 10 9
0.220833 -1.29703 1.31148 67 20 14
0.220833 -1.29703 1.33105 75 44 36
0.220833 -1.29703 1.35063 106 66 41
0.220833 -1.29703 1.3702 114 67 45
0.220833 -1.29703 1.38978 115 59 50
0.220833 -1.29703 1.40935 130 72 53
0.220833 -1.29703 1.42893 150 85 70
0.220833 -1.29703 1.4485 170 112 99
0.220833 -1.29703 1.46808 160 121 96
0.220833 -1.29703 1.48765 158 121 97
0.220833 -1.29703 1.50722 178 113 96
0.220833 -1.29703 1.5268 53 26 27
0.220833 -1.29703 1.54637 37 24 21
0.220833 -1.29703 1.56595 43 31 24
0.220833 -1.29703 1.58552 50 39 30
0.220833 -1.29703 1.6051 67 81 64
0.220833 -1.27746 0.763399 230 131 105
0.220833 -1.27746 0.782974 230 132 104
0.220833 -1.27746 0.802548 227 131 99
0.220833 -1.27746 0.822122 215 130 99
0.220833 -1.27746 0.841697 187 112 93
0.220833 -1.27746 0.861271 148 77 57
0.220833 -1.27746 0.880845 100 62 48
0.220833 -1.27746 0.90042 95 48 40
0.220833 -1.27746 1.13531 114 58 46
0.220833 -1.27746 1.15489 126 70 50
0.220833 -1.27746 1.17446 132 79 64
0.220833 -1.27746 1.19403 128 76 69
0.220833 -1.27746 1.21361 75 14 9
0.220833 -1.27746 1.23318 67 12 10
0.220833 -1.27746 1.25276 60 11 6
0.220833 -1.27746 1.27233 48 8 11
0.220833 -1.27746 1.29191 41 9 7
0.220833 -1.27746 1.31148 47 8 8
0.220833 -1.27746 1.33105 56 36 27
0.220833 -1.27746 1.35063 48 26 16
0.220833 -1.27746 1.3702 75 44 56
0.220833 -1.27746 1.38978 149 69 58
0.220833 -1.27746 1.40935 152 69 49
0.220833 -1.27746 1.42893 149 78 57
0.220833 -1.27746 1.4485 57 35 27
0.220833 -1.27746 1.46808 89 63 43
0.220833 -1.27746 1.48765 139 108 78
0.220833 -1.27746 1.50722 189 112 83
0.220833 -1.27746 1.5268 142 93 87
0.220833 -1.27746 1.54637 58 47 45
0.220833 -1.27746 1.56595 39 28 18
0.220833 -1.27746 1.58552 39 29 24
0.220833 -1.27746 1.6051 70 42 34
0.220833 -1.27746 1.62467 51 26 25
0.220833 -1.25788 1.15489 124 80 58
0.220833 -1.25788 1.17446 126 76 60
0.220833 -1.25788 1.19403 144 91 67
0.220833 -1.25788 1.21361 145 79 74
0.220833 -1.25788 1.23318 73 25 41
0.220833 -1.25788 1.25276 61 12 7
0.220833 -1.25788 1.27233 60 7 6
0.220833 -1.25788 1.29191 53 7 4
0.220833 -1.25788 1.31148 43 9 6
0.220833 -1.25788 1.33105 51 28 18
0.220833 -1.25788 1.35063 45 28 20
0.220833 -1.25788 1.3702 59 32 32
0.220833 -1.25788 1.38978 160 99 68
0.220833 -1.25788 1.40935 196 103 84
0.220833 -1.25788 1.42893 114 84 71
0.220833 -1.25788 1.4485 65 26 27
0.220833 -1.25788 1.46808 103 93 81
0.220833 -1.25788 1.48765 182 105 77
0.220833 -1.25788 1.50722 207 134 105
0.220833 -1.25788 1.5268 233 147 111
0.220833 -1.25788 1.54637 76 52 52
0.220833 -1.25788 1.56595 43 28 26
0.220833 -1.25788 1.58552 43 29 24
0.220833 -1.25788 1.6051 58 44 38
0.220833 -1.25788 1.62467 48 34 30
0.220833 -1.23831 1.19403 157 95 72
0.220833 -1.23831 1.21361 166 100 78
0.220833 -1.23831 1.23318 142 67 64
0.220833 -1.23831 1.25276 99 24 28
0.220833 -1.23831 1.27233 64 10 13
0.220833 -1.23831 1.29191 59 9 3
0.220833 -1.23831 1.31148 48 6 5
0.220833 -1.23831 1.33105 42 9 0
0.220833 -1.23831 1.35063 49 32 24
0.220833 -1.23831 1.3702 62 38 36
0.220833 -1.23831 1.38978 66 36 29
0.220833 -1.23831 1.40935 67 39 31
0.220833 -1.23831 1.42893 109 63 29
0.220833 -1.23831 1.4485 117 60 49
0.220833 -1.23831 1.46808 144 89 64
0.220833 -1.23831 1.48765 163 91 80
0.220833 -1.23831 1.50722 178 105 76
0.220833 -1.23831 1.5268 95 65 38
0.220833 -1.23831 1.54637 36 27 24
0.220833 -1.23831 1.56595 41 31 24
0.220833 -1.23831 1.58552 57 34 30
0.220833 -1.23831 1.6051 43 33 28
0.220833 -1.23831 1.62467 46 27 24
0.220833 -1.23831 1.64424 32 24 19
0.220833 -1.21874 1.23318 166 97 78
0.220833 -1.21874 1.25276 97 63 63
0.220833 -1.21874 1.27233 74 12 14
0.220833 -1.21874 1.29191 71 10 6
0.220833 -1.21874 1.31148 63 12 7
0.220833 -1.21874 1.33105 66 27 61
0.220833 -1.21874 1.35063 62 26 57
0.220833 -1.21874 1.3702 53 37 36
0.220833 -1.21874 1.38978 81 40 35
0.220833 -1.21874 1.42893 48 33 19
0.220833 -1.21874 1.4485 122 70 53
0.220833 -1.21874 1.46808 144 81 64
0.220833 -1.21874 1.48765 161 90 74
0.220833 -1.21874 1.50722 116 76 52
0.220833 -1.21874 1.5268 46 32 21
0.220833 -1.21874 1.54637 29 21 20
0.220833 -1.21874 1.56595 37 27 27
0.220833 -1.21874 1.58552 45 28 26
0.220833 -1.21874 1.6051 41 28 22
0.220833 -1.21874 1.62467 40 27 25
0.220833 -1.19916 1.4485 106 64 53
0.220833 -1.19916 1.46808 135 80 56
0.220833 -1.19916 1.48765 92 63 43
0.220833 -1.19916 1.50722 51 27 16
0.220833 -1.19916 1.5268 32 21 18
0.220833 -1.19916 1.54637 34 27 21
0.220833 -1.19916 1.56595 40 29 24
0.220833 -1.19916 1.58552 35 28 24
0.220833 -1.19916 1.6051 34 25 22
0.220833 -1.19916 1.62467 34 25 16
0.220833 -1.17959 1.46808 101 64 41
0.220833 -1.17959 1.48765 32 29 19
0.220833 -1.17959 1.50722 21 15 9
0.220833 -1.17959 1.5268 24 18 19
0.220833 -1.17959 1.54637 32 23 20
0.220833 -1.17959 1.56595 25 21 22
0.220833 -1.17959 1.58552 29 23 21
0.220833 -1.17959 1.6051 35 24 22
0.220833 -1.16001 1.46808 36 19 9
0.220833 -1.16001 1.48765 26 21 17
0.220833 -1.16001 1.50722 24 23 15
0.220833 -1.16001 1.5268 29 20 21
0.220833 -1.16001 1.54637 26 20 18
0.220833 -1.16001 1.56595 30 19 18
0.220833 -1.16001 1.58552 40 31 27
0.220833 -1.14044 1.46808 16 11 9
0.220833 -1.14044 1.48765 22 13 0
0.220833 -1.14044 1.50722 20 13 11
0.220833 -1.14044 1.5268 26 15 14
0.220833 -1.14044 1.54637 32 22 22
0.220833 -1.14044 1.56595 48 33 37
0.220833 -1.14044 1.58552 52 54 64
0.220833 -1.12086 1.50722 36 34 51
0.220833 -1.12086 1.5268 44 36 57
0.220833 -1.12086 1.54637 54 49 65
0.240407 -1.6298 0.0391487 108 63 58
0.240407 -1.6298 0.058723 100 64 61
0.240407 -1.6298 0.0782974 91 64 52
0.240407 -1.6298 0.0978717 80 65 55
0.240407 -1.6298 0.117446 61 62 60
0.240407 -1.61022 0.0195743 86 53 35
0.240407 -1.61022 0.0391487 92 58 48
0.240407 -1.61022 0.058723 95 60 48
0.240407 -1.61022 0.0782974 89 61 35
0.240407 -1.61022 0.0978717 100 65 51
0.240407 -1.61022 0.117446 105 68 57
0.240407 -1.61022 0.13702 107 68 52
0.240407 -1.59065 0 71 45 35
0.240407 -1.59065 0.0195743 69 46 35
0.240407 -1.59065 0.0391487 71 47 39
0.240407 -1.59065 0.058723 71 46 35
0.240407 -1.59065 0.0782974 56 38 27
0.240407 -1.59065 0.0978717 61 42 32
0.240407 -1.59065 0.117446 91 56 33
0.240407 -1.59065 0.13702 100 67 57
0.240407 -1.59065 0.156595 107 71 53
0.240407 -1.57107 0 49 46 32
0.240407 -1.57107 0.0195743 46 45 35
0.240407 -1.57107 0.0391487 59 45 32
0.240407 -1.57107 0.058723 53 40 33
0.240407 -1.57107 0.0782974 47 32 33
0.240407 -1.57107 0.0978717 49 32 24
0.240407 -1.57107 0.117446 53 39 28
0.240407 -1.57107 0.13702 60 37 25
0.240407 -1.57107 0.156595 78 45 30
0.240407 -1.57107 0.176169 85 55 40
0.240407 -1.5515 0 37 40 38
0.240407 -1.5515 0.0195743 34 39 35
0.240407 -1.5515 0.0391487 32 41 32
0.240407 -1.5515 0.058723 35 40 35
0.240407 -1.5515 0.117446 42 45 43
0.240407 -1.5515 0.13702 42 38 44
0.240407 -1.5515 0.156595 48 38 35
0.240407 -1.5515 0.176169 55 39 29
0.240407 -1.5515 0.195743 61 41 34
0.240407 -1.5515 0.215318 71 46 34
0.240407 -1.5515 0.234892 72 49 30
0.240407 -1.5515 0.254466 75 51 33
0.240407 -1.5515 0.274041 74 50 39
0.240407 -1.5515 0.293615 77 52 41
0.240407 -1.5515 0.430635 37 10 8
0.240407 -1.5515 0.45021 45 11 10
0.240407 -1.5515 0.469784 53 10 14
0.240407 -1.5515 0.489358 62 32 30
0.240407 -1.5515 1.09616 21 9 1
0.240407 -1.5515 1.11574 59 10 8
0.240407 -1.53192 0.156595 49 55 52
0.240407 -1.53192 0.176169 44 40 30
0.240407 -1.53192 0.195743 46 35 23
0.240407 -1.53192 0.215318 54 39 33
0.240407 -1.53192 0.234892 58 41 35
0.240407 -1.53192 0.254466 62 41 32
0.240407 -1.53192 0.274041 68 46 36
0.240407 -1.53192 0.293615 71 47 35
0.240407 -1.53192 0.313189 74 48 38
0.240407 -1.53192 0.332764 75 51 41
0.240407 -1.53192 0.411061 46 28 30
0.240407 -1.53192 0.430635 33 7 14
0.240407 -1.53192 0.45021 37 7 6
0.240407 -1.53192 0.469784 48 10 13
0.240407 -1.53192 0.489358 57 10 9
0.240407 -1.53192 0.508933 61 11 9
0.240407 -1.53192 0.528507 63 12 7
0.240407 -1.53192 0.548081 66 13 10
0.240407 -1.53192 0.567656 64 14 10
0.240407 -1.53192 0.90042 48 64 58
0.240407 -1.53192 1.01787 35 6 4
0.240407 -1.53192 1.03744 39 4 5
0.240407 -1.53192 1.05701 39 7 0
0.240407 -1.53192 1.07659 37 3 7
0.240407 -1.53192 1.09616 30 6 3
0.240407 -1.53192 1.11574 32 5 6
0.240407 -1.53192 1.13531 29 6 5
0.240407 -1.53192 1.15489 52 12 9
0.240407 -1.53192 1.17446 68 17 16
0.240407 -1.53192 1.19403 34 9 9
0.240407 -1.51235 0.195743 47 49 48
0.240407 -1.51235 0.215318 46 37 37
0.240407 -1.51235 0.234892 43 32 26
0.240407 -1.51235 0.254466 43 34 29
0.240407 -1.51235 0.274041 52 38 30
0.240407 -1.51235 0.293615 56 41 33
0.240407 -1.51235 0.313189 60 44 36
0.240407 -1.51235 0.332764 65 49 37
0.240407 -1.51235 0.352338 69 48 39
0.240407 -1.51235 0.371912 64 46 36
0.240407 -1.51235 0.391487 57 41 31
0.240407 -1.51235 0.411061 39 11 17
0.240407 -1.51235 0.430635 41 9 9
0.240407 -1.51235 0.45021 43 8 9
0.240407 -1.51235 0.469784 42 7 4
0.240407 -1.51235 0.489358 43 7 6
0.240407 -1.51235 0.508933 52 13 2
0.240407 -1.51235 0.528507 59 11 9
0.240407 -1.51235 0.548081 58 12 10
0.240407 -1.51235 0.567656 64 15 11
0.240407 -1.51235 0.58723 66 13 9
0.240407 -1.51235 0.606804 65 14 9
0.240407 -1.51235 0.626379 57 13 11
0.240407 -1.51235 0.685102 54 40 20
0.240407 -1.51235 0.763399 57 35 15
0.240407 -1.51235 0.782974 62 65 37
0.240407 -1.51235 0.802548 65 69 45
0.240407 -1.51235 0.822122 62 59 32
0.240407 -1.51235 0.841697 57 54 27
0.240407 -1.51235 0.861271 53 25 15
0.240407 -1.51235 0.880845 45 11 9
0.240407 -1.51235 0.90042 42 10 10
0.240407 -1.51235 0.919994 38 7 6
0.240407 -1.51235 0.939568 40 8 8
0.240407 -1.51235 0.959143 42 9 8
0.240407 -1.51235 0.978717 39 6 12
0.240407 -1.51235 0.998291 38 7 5
0.240407 -1.51235 1.01787 40 7 7
0.240407 -1.51235 1.03744 43 8 5
0.240407 -1.51235 1.05701 41 9 8
0.240407 -1.51235 1.07659 34 7 5
0.240407 -1.51235 1.09616 38 7 5
0.240407 -1.51235 1.11574 76 11 11
0.240407 -1.51235 1.13531 64 9 7
0.240407 -1.51235 1.15489 55 7 7
0.240407 -1.51235 1.17446 43 6 7
0.240407 -1.51235 1.19403 58 9 11
0.240407 -1.51235 1.21361 54 7 5
0.240407 -1.51235 1.23318 52 8 6
0.240407 -1.51235 1.25276 58 8 8
0.240407 -1.49278 0.254466 47 38 35
0.240407 -1.49278 0.274041 44 32 26
0.240407 -1.49278 0.293615 43 33 29
0.240407 -1.49278 0.313189 46 35 31
0.240407 -1.49278 0.332764 53 37 29
0.240407 -1.49278 0.352338 52 40 31
0.240407 -1.49278 0.371912 53 34 27
0.240407 -1.49278 0.391487 33 9 8
0.240407 -1.49278 0.411061 33 8 0
0.240407 -1.49278 0.430635 32 4 12
0.240407 -1.49278 0.45021 36 8 6
0.240407 -1.49278 0.469784 43 11 6
0.240407 -1.49278 0.489358 44 10 6
0.240407 -1.49278 0.508933 47 9 4
0.240407 -1.49278 0.528507 48 9 11
0.240407 -1.49278 0.548081 52 11 8
0.240407 -1.49278 0.567656 54 13 6
0.240407 -1.49278 0.58723 55 11 20
0.240407 -1.49278 0.606804 58 12 8
0.240407 -1.49278 0.626379 62 13 20
0.240407 -1.49278 0.645953 60 13 13
0.240407 -1.49278 0.665527 62 13 7
0.240407 -1.49278 0.685102 60 12 9
0.240407 -1.49278 0.704676 56 11 10
0.240407 -1.49278 0.724251 55 10 6
0.240407 -1.49278 0.743825 54 11 8
0.240407 -1.49278 0.763399 51 10 8
0.240407 -1.49278 0.782974 47 10 8
0.240407 -1.49278 0.802548 45 9 8
0.240407 -1.49278 0.822122 42 8 8
0.240407 -1.49278 0.841697 42 9 6
0.240407 -1.49278 0.861271 43 10 5
0.240407 -1.49278 0.880845 43 6 12
0.240407 -1.49278 0.90042 38 8 6
0.240407 -1.49278 0.919994 41 8 7
0.240407 -1.49278 0.939568 40 8 7
0.240407 -1.49278 0.959143 37 8 6
0.240407 -1.49278 0.978717 41 8 0
0.240407 -1.49278 0.998291 40 9 6
0.240407 -1.49278 1.01787 38 8 9
0.240407 -1.49278 1.03744 42 8 6
0.240407 -1.49278 1.05701 44 8 8
0.240407 -1.49278 1.07659 36 8 8
0.240407 -1.49278 1.09616 36 7 7
0.240407 -1.49278 1.11574 37 10 11
0.240407 -1.49278 1.13531 59 12 10
0.240407 -1.49278 1.15489 51 6 7
0.240407 -1.49278 1.17446 40 6 5
0.240407 -1.49278 1.19403 31 6 7
0.240407 -1.49278 1.21361 80 26 5
0.240407 -1.49278 1.23318 114 88 68
0.240407 -1.49278 1.25276 43 11 7
0.240407 -1.49278 1.27233 57 10 9
0.240407 -1.49278 1.29191 58 9 7
0.240407 -1.4732 0.293615 51 52 37
0.240407 -1.4732 0.313189 46 33 28
0.240407 -1.4732 0.332764 45 33 26
0.240407 -1.4732 0.352338 47 34 26
0.240407 -1.4732 0.371912 39 26 22
0.240407 -1.4732 0.391487 35 11 11
0.240407 -1.4732 0.411061 32 7 8
0.240407 -1.4732 0.430635 30 8 8
0.240407 -1.4732 0.45021 30 8 4
0.240407 -1.4732 0.469784 31 8 7
0.240407 -1.4732 0.489358 39 8 8
0.240407 -1.4732 0.508933 40 9 8
0.240407 -1.4732 0.528507 43 8 8
0.240407 -1.4732 0.548081 43 8 6
0.240407 -1.4732 0.567656 46 7 5
0.240407 -1.4732 0.58723 46 9 14
0.240407 -1.4732 0.606804 50 11 6
0.240407 -1.4732 0.626379 54 11 7
0.240407 -1.4732 0.645953 50 10 8
0.240407 -1.4732 0.665527 53 11 4
0.240407 -1.4732 0.685102 52 10 8
0.240407 -1.4732 0.704676 52 10 7
0.240407 -1.4732 0.724251 55 10 9
0.240407 -1.4732 0.743825 54 10 7
0.240407 -1.4732 0.763399 53 10 6
0.240407 -1.4732 0.782974 48 8 7
0.240407 -1.4732 0.802548 47 9 6
0.240407 -1.4732 0.822122 43 8 8
0.240407 -1.4732 0.841697 43 9 8
0.240407 -1.4732 0.861271 45 5 3
0.240407 -1.4732 0.880845 43 7 7
0.240407 -1.4732 0.90042 43 9 7
0.240407 -1.4732 0.919994 41 7 6
0.240407 -1.4732 0.939568 36 8 4
0.240407 -1.4732 0.959143 40 8 6
0.240407 -1.4732 0.978717 45 9 7
0.240407 -1.4732 0.998291 34 10 16
0.240407 -1.4732 1.01787 31 4 9
0.240407 -1.4732 1.03744 46 9 6
0.240407 -1.4732 1.05701 48 9 7
0.240407 -1.4732 1.07659 35 8 5
0.240407 -1.4732 1.09616 46 10 7
0.240407 -1.4732 1.11574 38 6 8
0.240407 -1.4732 1.13531 20 6 0
0.240407 -1.4732 1.15489 37 6 6
0.240407 -1.4732 1.17446 44 9 6
0.240407 -1.4732 1.19403 48 10 8
0.240407 -1.4732 1.21361 98 14 16
0.240407 -1.4732 1.23318 104 27 22
0.240407 -1.4732 1.25276 116 48 29
0.240407 -1.4732 1.27233 85 20 19
0.240407 -1.4732 1.29191 69 12 8
0.240407 -1.4732 1.31148 69 11 11
0.240407 -1.45363 0.332764 48 43 38
0.240407 -1.45363 0.352338 48 35 34
0.240407 -1.45363 0.371912 45 34 27
0.240407 -1.45363 0.391487 43 17 20
0.240407 -1.45363 0.411061 35 8 8
0.240407 -1.45363 0.430635 32 8 6
0.240407 -1.45363 0.45021 31 6 8
0.240407 -1.45363 0.469784 29 7 4
0.240407 -1.45363 0.489358 32 7 7
0.240407 -1.45363 0.508933 36 8 6
0.240407 -1.45363 0.528507 36 8 8
0.240407 -1.45363 0.548081 39 9 7
0.240407 -1.45363 0.567656 40 8 8
0.240407 -1.45363 0.58723 41 11 12
0.240407 -1.45363 0.606804 42 8 6
0.240407 -1.45363 0.626379 46 10 9
0.240407 -1.45363 0.645953 45 10 17
0.240407 -1.45363 0.665527 48 9 7
0.240407 -1.45363 0.685102 52 9 10
0.240407 -1.45363 0.704676 52 10 8
0.240407 -1.45363 0.724251 51 8 7
0.240407 -1.45363 0.743825 50 11 6
0.240407 -1.45363 0.763399 52 9 8
0.240407 -1.45363 0.782974 52 9 6
0.240407 -1.45363 0.802548 52 10 6
0.240407 -1.45363 0.822122 47 8 7
0.240407 -1.45363 0.841697 48 10 8
0.240407 -1.45363 0.861271 44 9 0
0.240407 -1.45363 0.880845 47 10 11
0.240407 -1.45363 0.90042 41 8 7
0.240407 -1.45363 0.919994 38 7 6
0.240407 -1.45363 0.939568 43 6 9
0.240407 -1.45363 0.959143 48 8 6
0.240407 -1.45363 0.978717 48 9 8
0.240407 -1.45363 0.998291 35 7 7
0.240407 -1.45363 1.01787 32 6 11
0.240407 -1.45363 1.03744 50 9 6
0.240407 -1.45363 1.05701 37 8 8
0.240407 -1.45363 1.07659 34 7 5
0.240407 -1.45363 1.09616 41 8 0
0.240407 -1.45363 1.11574 51 10 12
0.240407 -1.45363 1.13531 47 10 3
0.240407 -1.45363 1.15489 81 12 11
0.240407 -1.45363 1.17446 79 14 9
0.240407 -1.45363 1.19403 67 10 10
0.240407 -1.45363 1.21361 57 10 9
0.240407 -1.45363 1.23318 105 19 18
0.240407 -1.45363 1.25276 138 105 75
0.240407 -1.45363 1.27233 200 126 106
0.240407 -1.45363 1.29191 168 111 89
0.240407 -1.45363 1.31148 154 101 81
0.240407 -1.45363 1.33105 125 35 50
0.240407 -1.43405 0.391487 53 59 62
0.240407 -1.43405 0.411061 46 51 60
0.240407 -1.43405 0.430635 37 32 40
0.240407 -1.43405 0.45021 30 6 7
0.240407 -1.43405 0.469784 27 7 6
0.240407 -1.43405 0.489358 29 7 6
0.240407 -1.43405 0.508933 32 7 6
0.240407 -1.43405 0.528507 31 8 9
0.240407 -1.43405 0.548081 32 7 7
0.240407 -1.43405 0.567656 35 8 5
0.240407 -1.43405 0.58723 35 9 4
0.240407 -1.43405 0.606804 36 8 10
0.240407 -1.43405 0.626379 42 8 6
0.240407 -1.43405 0.645953 44 8 4
0.240407 -1.43405 0.665527 41 7 11
0.240407 -1.43405 0.685102 48 8 7
0.240407 -1.43405 0.704676 46 9 8
0.240407 -1.43405 0.724251 45 8 10
0.240407 -1.43405 0.743825 47 10 4
0.240407 -1.43405 0.763399 53 10 8
0.240407 -1.43405 0.782974 56 11 8
0.240407 -1.43405 0.802548 48 10 2
0.240407 -1.43405 0.822122 52 10 9
0.240407 -1.43405 0.841697 43 9 6
0.240407 -1.43405 0.861271 48 10 8
0.240407 -1.43405 0.880845 45 10 6
0.240407 -1.43405 0.90042 39 7 12
0.240407 -1.43405 0.919994 44 8 6
0.240407 -1.43405 0.939568 42 10 7
0.240407 -1.43405 0.959143 49 9 8
0.240407 -1.43405 0.978717 46 8 7
0.240407 -1.43405 0.998291 40 8 7
0.240407 -1.43405 1.01787 43 8 7
0.240407 -1.43405 1.03744 44 9 3
0.240407 -1.43405 1.05701 36 8 8
0.240407 -1.43405 1.07659 36 8 8
0.240407 -1.43405 1.09616 39 8 7
0.240407 -1.43405 1.11574 41 9 8
0.240407 -1.43405 1.13531 46 10 9
0.240407 -1.43405 1.15489 84 16 12
0.240407 -1.43405 1.17446 90 16 11
0.240407 -1.43405 1.19403 86 14 9
0.240407 -1.43405 1.21361 67 11 10
0.240407 -1.43405 1.23318 80 12 7
0.240407 -1.43405 1.25276 162 43 20
0.240407 -1.43405 1.27233 222 149 122
0.240407 -1.43405 1.29191 213 142 103
0.240407 -1.43405 1.31148 205 134 107
0.240407 -1.43405 1.33105 204 134 112
0.240407 -1.41448 0.430635 59 68 58
0.240407 -1.41448 0.45021 45 31 31
0.240407 -1.41448 0.469784 21 5 4
0.240407 -1.41448 0.489358 23 6 7
0.240407 -1.41448 0.508933 29 8 7
0.240407 -1.41448 0.528507 31 9 7
0.240407 -1.41448 0.548081 30 7 9
0.240407 -1.41448 0.567656 30 7 7
