ply
format ascii 1.0
comment Created by Open3D
element vertex 1308
property double x
property double y
property double z
property uchar red
property uchar green
property uchar blue
end_header
-0.264903 -1.35531 0.843433 69 48 41
-0.222732 -1.35531 0.843433 124 63 47
-0.222732 -1.35531 0.885604 124 64 59
-0.222732 -1.31313 0.885604 142 76 72
-0.18056 -1.35531 0.885604 99 68 52
-0.18056 -1.31313 0.843433 143 63 55
-0.18056 -1.31313 0.885604 183 110 86
-0.138389 -1.35531 0.885604 33 39 23
-0.138389 -1.31313 0.885604 230 133 92
-0.138389 -1.31313 0.927776 240 143 111
-0.0962169 -1.31313 0.927776 230 136 106
-0.0540453 -1.35531 0.927776 53 11 18
-0.0540453 -1.31313 0.927776 227 133 103
-0.0540453 -1.31313 0.969948 215 130 105
-0.0118736 -1.35531 0.969948 146 71 47
-0.0118736 -1.31313 0.969948 223 135 104
0.030298 -1.35531 0.969948 115 32 21
0.030298 -1.35531 1.01212 144 59 50
0.030298 -1.31313 0.969948 230 132 104
0.030298 -1.31313 1.01212 217 123 99
0.030298 -1.27096 1.01212 97 34 33
0.0724696 -1.35531 1.01212 65 29 46
0.0724696 -1.35531 1.05429 32 7 5
0.0724696 -1.31313 1.01212 114 61 50
0.0724696 -1.31313 1.05429 114 65 43
0.0724696 -1.31313 1.09646 137 82 63
0.0724696 -1.31313 1.47601 80 41 25
0.0724696 -1.31313 1.51818 128 66 51
0.0724696 -1.27096 1.09646 71 64 45
0.0724696 -1.27096 1.13863 72 42 31
0.0724696 -1.27096 1.47601 69 40 31
0.0724696 -1.27096 1.51818 67 58 35
0.0724696 -1.27096 1.56035 117 68 71
0.0724696 -1.22879 1.51818 53 28 19
0.0724696 -1.22879 1.56035 106 64 33
0.0724696 -1.22879 1.60252 51 39 35
0.0724696 -1.18662 1.60252 20 17 9
0.114641 -1.43965 1.09646 45 8 6
0.114641 -1.39748 1.13863 39 8 8
0.114641 -1.35531 1.13863 35 5 8
0.114641 -1.35531 1.18081 25 6 5
0.114641 -1.35531 1.22298 22 10 10
0.114641 -1.35531 1.26515 37 18 18
0.114641 -1.31313 1.05429 135 82 62
0.114641 -1.31313 1.09646 136 79 61
0.114641 -1.31313 1.13863 129 69 57
0.114641 -1.31313 1.18081 122 60 52
0.114641 -1.31313 1.22298 67 27 26
0.114641 -1.31313 1.26515 105 69 55
0.114641 -1.31313 1.43384 79 53 41
0.114641 -1.31313 1.47601 145 73 61
0.114641 -1.31313 1.51818 170 112 83
0.114641 -1.31313 1.56035 158 121 97
0.114641 -1.27096 1.05429 73 46 45
0.114641 -1.27096 1.09646 90 51 36
0.114641 -1.27096 1.13863 101 61 43
0.114641 -1.27096 1.18081 102 64 42
0.114641 -1.27096 1.22298 111 74 57
0.114641 -1.27096 1.26515 132 79 62
0.114641 -1.27096 1.43384 47 26 16
0.114641 -1.27096 1.47601 102 84 58
0.114641 -1.27096 1.51818 86 44 44
0.114641 -1.27096 1.56035 174 101 82
0.114641 -1.27096 1.60252 193 97 57
0.114641 -1.22879 1.18081 63 42 51
0.114641 -1.22879 1.22298 86 48 16
0.114641 -1.22879 1.26515 110 66 52
0.114641 -1.22879 1.47601 68 40 21
0.114641 -1.22879 1.51818 100 63 52
0.114641 -1.22879 1.56035 147 82 53
0.114641 -1.22879 1.60252 33 25 20
0.114641 -1.22879 1.64469 40 30 26
0.114641 -1.18662 1.51818 25 18 20
0.114641 -1.18662 1.56035 26 21 17
0.114641 -1.18662 1.60252 28 19 21
0.114641 -1.14445 1.56035 42 40 63
0.156813 -1.60834 0 106 63 53
0.156813 -1.60834 0.0421716 121 73 67
0.156813 -1.48182 1.05429 45 9 7
0.156813 -1.48182 1.09646 37 4 9
0.156813 -1.43965 1.05429 45 7 7
0.156813 -1.43965 1.09646 42 7 7
0.156813 -1.43965 1.13863 34 5 6
0.156813 -1.43965 1.18081 33 7 8
0.156813 -1.43965 1.22298 81 11 11
0.156813 -1.43965 1.26515 74 12 9
0.156813 -1.39748 0.674746 26 7 6
0.156813 -1.39748 0.716918 30 6 12
0.156813 -1.39748 0.759089 35 8 6
0.156813 -1.39748 0.801261 38 7 8
0.156813 -1.39748 0.843433 37 8 5
0.156813 -1.39748 0.885604 40 8 7
0.156813 -1.39748 0.927776 39 9 4
0.156813 -1.39748 1.09646 34 5 6
0.156813 -1.39748 1.13863 24 6 7
0.156813 -1.39748 1.18081 58 9 9
0.156813 -1.39748 1.22298 46 7 10
0.156813 -1.39748 1.26515 64 8 10
0.156813 -1.39748 1.30732 60 11 8
0.156813 -1.35531 0.759089 26 6 1
0.156813 -1.35531 0.801261 27 7 5
0.156813 -1.35531 0.843433 29 6 9
0.156813 -1.35531 0.885604 28 6 5
0.156813 -1.35531 1.13863 25 7 6
0.156813 -1.35531 1.18081 13 6 5
0.156813 -1.35531 1.22298 41 18 16
0.156813 -1.35531 1.26515 74 13 10
0.156813 -1.35531 1.30732 76 14 12
0.156813 -1.31313 1.13863 85 70 59
0.156813 -1.31313 1.18081 30 17 16
0.156813 -1.31313 1.22298 94 59 46
0.156813 -1.31313 1.26515 74 13 4
0.156813 -1.31313 1.30732 53 9 4
0.156813 -1.31313 1.43384 111 67 43
0.156813 -1.31313 1.47601 145 85 75
0.156813 -1.31313 1.51818 228 139 96
0.156813 -1.31313 1.56035 79 63 60
0.156813 -1.31313 1.60252 44 24 20
0.156813 -1.27096 1.09646 101 63 53
0.156813 -1.27096 1.13863 118 74 59
0.156813 -1.27096 1.18081 121 74 55
0.156813 -1.27096 1.22298 126 77 62
0.156813 -1.27096 1.26515 145 79 74
0.156813 -1.27096 1.30732 61 12 7
0.156813 -1.27096 1.34949 47 9 4
0.156813 -1.27096 1.43384 160 99 68
0.156813 -1.27096 1.47601 114 63 62
0.156813 -1.27096 1.51818 173 93 81
0.156813 -1.27096 1.56035 235 134 105
0.156813 -1.27096 1.60252 54 29 26
0.156813 -1.27096 1.64469 47 33 38
0.156813 -1.22879 1.18081 89 52 49
0.156813 -1.22879 1.22298 109 67 47
0.156813 -1.22879 1.26515 169 98 78
0.156813 -1.22879 1.30732 97 28 11
0.156813 -1.22879 1.43384 77 48 38
0.156813 -1.22879 1.47601 48 33 19
0.156813 -1.22879 1.51818 144 90 69
0.156813 -1.22879 1.56035 76 36 22
0.156813 -1.22879 1.60252 27 26 21
0.156813 -1.22879 1.64469 32 25 22
0.156813 -1.18662 1.47601 32 27 27
0.156813 -1.18662 1.51818 66 54 36
0.156813 -1.18662 1.56035 18 18 16
0.156813 -1.18662 1.60252 25 21 19
0.156813 -1.14445 1.51818 23 15 13
0.156813 -1.14445 1.56035 29 23 19
0.156813 -1.14445 1.60252 56 40 52
0.198985 -1.65051 0.0421716 79 65 58
0.198985 -1.60834 0 118 68 55
0.198985 -1.60834 0.0421716 86 54 42
0.198985 -1.56616 0 51 46 44
0.198985 -1.52399 1.09646 45 8 7
0.198985 -1.52399 1.13863 47 7 6
0.198985 -1.48182 0.421716 39 26 22
0.198985 -1.48182 0.463888 31 7 8
0.198985 -1.48182 0.50606 31 7 10
0.198985 -1.48182 0.548231 39 8 10
0.198985 -1.48182 0.590403 42 10 9
0.198985 -1.48182 0.632574 46 9 12
0.198985 -1.48182 0.674746 50 11 9
0.198985 -1.48182 0.716918 52 9 13
0.198985 -1.48182 0.759089 55 9 7
0.198985 -1.48182 0.801261 53 9 9
0.198985 -1.48182 1.09646 42 8 5
0.198985 -1.48182 1.13863 46 7 6
0.198985 -1.48182 1.18081 24 5 7
0.198985 -1.48182 1.22298 48 9 11
0.198985 -1.48182 1.26515 93 16 22
0.198985 -1.43965 0.463888 46 32 40
0.198985 -1.43965 0.50606 29 6 7
0.198985 -1.43965 0.548231 32 7 7
0.198985 -1.43965 0.590403 32 7 5
0.198985 -1.43965 0.632574 35 9 4
0.198985 -1.43965 0.674746 42 8 4
0.198985 -1.43965 0.716918 45 8 7
0.198985 -1.43965 0.759089 46 8 10
0.198985 -1.43965 0.801261 52 10 8
0.198985 -1.43965 0.843433 48 10 2
0.198985 -1.43965 0.885604 43 9 6
0.198985 -1.43965 0.927776 45 9 6
0.198985 -1.43965 0.969948 42 8 6
0.198985 -1.43965 1.01212 46 8 7
0.198985 -1.43965 1.05429 43 8 7
0.198985 -1.43965 1.09646 36 8 6
0.198985 -1.43965 1.13863 38 8 7
0.198985 -1.43965 1.18081 62 13 11
0.198985 -1.43965 1.22298 86 15 9
0.198985 -1.43965 1.26515 80 12 7
0.198985 -1.43965 1.30732 228 149 122
0.198985 -1.39748 0.548231 25 4 5
0.198985 -1.39748 0.590403 25 6 10
0.198985 -1.39748 0.632574 26 9 8
0.198985 -1.39748 0.674746 30 7 9
0.198985 -1.39748 0.716918 35 7 7
0.198985 -1.39748 0.759089 38 7 8
0.198985 -1.39748 0.801261 37 6 7
0.198985 -1.39748 0.843433 40 7 7
0.198985 -1.39748 0.885604 37 7 10
0.198985 -1.39748 0.927776 42 11 7
0.198985 -1.39748 0.969948 36 8 5
0.198985 -1.39748 1.01212 43 5 6
0.198985 -1.39748 1.05429 35 7 5
0.198985 -1.39748 1.09646 29 6 6
0.198985 -1.39748 1.13863 35 7 6
0.198985 -1.39748 1.18081 45 8 8
0.198985 -1.39748 1.22298 65 11 8
0.198985 -1.39748 1.26515 65 12 8
0.198985 -1.39748 1.30732 74 14 12
0.198985 -1.39748 1.34949 225 138 103
0.198985 -1.35531 0.674746 25 4 4
0.198985 -1.35531 0.716918 29 6 6
0.198985 -1.35531 0.759089 29 7 5
0.198985 -1.35531 0.801261 33 5 9
0.198985 -1.35531 0.843433 31 7 5
0.198985 -1.35531 0.885604 30 6 4
0.198985 -1.35531 0.927776 31 7 1
0.198985 -1.35531 0.969948 29 6 4
0.198985 -1.35531 1.01212 28 7 4
0.198985 -1.35531 1.05429 28 5 4
0.198985 -1.35531 1.09646 25 4 11
0.198985 -1.35531 1.13863 18 8 8
0.198985 -1.35531 1.18081 35 16 10
0.198985 -1.35531 1.22298 74 10 8
0.198985 -1.35531 1.26515 96 14 8
0.198985 -1.35531 1.30732 52 9 11
0.198985 -1.35531 1.34949 135 77 62
0.198985 -1.31313 0.759089 146 88 73
0.198985 -1.31313 0.801261 197 112 84
0.198985 -1.31313 0.843433 190 109 86
0.198985 -1.31313 0.885604 159 99 73
0.198985 -1.31313 0.927776 133 76 61
0.198985 -1.31313 1.13863 28 9 10
0.198985 -1.31313 1.18081 51 35 35
0.198985 -1.31313 1.22298 75 11 14
0.198985 -1.31313 1.26515 53 9 10
0.198985 -1.31313 1.30732 58 8 9
0.198985 -1.31313 1.34949 84 53 46
0.198985 -1.31313 1.39166 129 79 62
0.198985 -1.31313 1.43384 133 87 69
0.198985 -1.31313 1.47601 201 128 103
0.198985 -1.31313 1.51818 159 80 70
0.198985 -1.31313 1.56035 87 50 27
0.198985 -1.31313 1.60252 73 81 72
0.198985 -1.27096 1.18081 126 79 55
0.198985 -1.27096 1.22298 137 77 77
0.198985 -1.27096 1.26515 66 10 11
0.198985 -1.27096 1.30732 51 9 8
0.198985 -1.27096 1.34949 51 29 23
0.198985 -1.27096 1.39166 107 54 33
0.198985 -1.27096 1.43384 159 85 76
0.198985 -1.27096 1.47601 60 33 19
0.198985 -1.27096 1.51818 202 111 84
0.198985 -1.27096 1.56035 74 63 36
0.198985 -1.27096 1.60252 41 27 20
0.198985 -1.27096 1.64469 50 35 21
0.198985 -1.22879 1.18081 110 63 49
0.198985 -1.22879 1.22298 164 96 78
0.198985 -1.22879 1.26515 158 85 63
0.198985 -1.22879 1.30732 65 11 6
0.198985 -1.22879 1.34949 57 11 11
0.198985 -1.22879 1.43384 35 15 14
0.198985 -1.22879 1.47601 132 73 57
0.198985 -1.22879 1.51818 151 98 67
0.198985 -1.22879 1.56035 33 24 23
0.198985 -1.22879 1.60252 45 37 33
0.198985 -1.22879 1.64469 40 29 26
0.198985 -1.18662 1.47601 92 60 54
0.198985 -1.18662 1.51818 20 15 9
0.198985 -1.18662 1.56035 31 23 20
0.198985 -1.18662 1.60252 29 23 21
0.198985 -1.14445 1.47601 21 12 10
0.198985 -1.14445 1.51818 21 13 11
0.198985 -1.14445 1.56035 32 22 22
0.198985 -1.14445 1.60252 53 54 64
0.241156 -1.60834 0 83 54 42
0.241156 -1.60834 0.0421716 92 58 52
0.241156 -1.60834 0.0843433 92 60 35
0.241156 -1.60834 0.126515 105 68 52
0.241156 -1.56616 0 49 46 32
0.241156 -1.56616 0.0421716 43 39 32
0.241156 -1.56616 0.0843433 39 33 24
0.241156 -1.56616 0.126515 46 34 28
0.241156 -1.56616 0.168687 60 43 40
0.241156 -1.56616 0.463888 62 33 15
0.241156 -1.52399 0.210858 43 33 27
0.241156 -1.52399 0.25303 51 36 28
0.241156 -1.52399 0.295201 65 46 33
0.241156 -1.52399 0.337373 78 53 39
0.241156 -1.52399 0.379545 71 51 36
0.241156 -1.52399 0.421716 46 16 12
0.241156 -1.52399 0.463888 40 10 10
0.241156 -1.52399 0.50606 61 12 11
0.241156 -1.52399 0.548231 61 11 8
0.241156 -1.52399 0.885604 41 39 36
0.241156 -1.52399 0.969948 38 7 7
0.241156 -1.52399 1.01212 41 7 7
0.241156 -1.52399 1.05429 45 8 8
0.241156 -1.52399 1.09646 30 5 6
0.241156 -1.52399 1.13863 29 6 7
0.241156 -1.52399 1.18081 59 13 9
0.241156 -1.52399 1.22298 40 9 6
0.241156 -1.48182 0.295201 46 34 25
0.241156 -1.48182 0.337373 48 34 31
0.241156 -1.48182 0.379545 39 19 7
0.241156 -1.48182 0.421716 31 10 4
0.241156 -1.48182 0.463888 31 7 10
0.241156 -1.48182 0.50606 40 8 10
0.241156 -1.48182 0.548231 43 9 9
0.241156 -1.48182 0.590403 53 10 12
0.241156 -1.48182 0.632574 56 11 9
0.241156 -1.48182 0.674746 60 13 13
0.241156 -1.48182 0.716918 53 10 7
0.241156 -1.48182 0.759089 52 10 5
0.241156 -1.48182 0.801261 47 7 10
0.241156 -1.48182 0.843433 40 7 6
0.241156 -1.48182 0.885604 41 7 0
0.241156 -1.48182 0.927776 37 8 5
0.241156 -1.48182 0.969948 41 11 6
0.241156 -1.48182 1.01212 34 8 8
0.241156 -1.48182 1.05429 49 8 5
0.241156 -1.48182 1.09646 36 7 7
0.241156 -1.48182 1.13863 29 7 7
0.241156 -1.48182 1.18081 49 10 10
0.241156 -1.48182 1.22298 93 17 16
0.241156 -1.48182 1.26515 45 9 8
0.241156 -1.48182 1.30732 64 10 6
0.241156 -1.43965 0.379545 57 57 40
0.241156 -1.43965 0.421716 46 25 12
0.241156 -1.43965 0.463888 29 7 7
0.241156 -1.43965 0.50606 32 6 7
0.241156 -1.43965 0.548231 32 7 7
0.241156 -1.43965 0.590403 35 6 8
0.241156 -1.43965 0.632574 42 8 6
0.241156 -1.43965 0.674746 45 8 7
0.241156 -1.43965 0.716918 46 9 6
0.241156 -1.43965 0.759089 52 9 7
0.241156 -1.43965 0.801261 48 7 10
0.241156 -1.43965 0.843433 43 8 10
0.241156 -1.43965 0.885604 45 7 7
0.241156 -1.43965 0.927776 44 8 7
0.241156 -1.43965 0.969948 46 7 5
0.241156 -1.43965 1.01212 37 6 5
0.241156 -1.43965 1.05429 36 7 7
0.241156 -1.43965 1.09646 39 8 7
0.241156 -1.43965 1.13863 62 11 10
0.241156 -1.43965 1.18081 90 16 13
0.241156 -1.43965 1.22298 58 9 8
0.241156 -1.43965 1.26515 222 138 107
0.241156 -1.43965 1.30732 204 121 99
0.241156 -1.39748 0.421716 48 60 65
0.241156 -1.39748 0.463888 19 4 7
0.241156 -1.39748 0.50606 21 6 6
0.241156 -1.39748 0.548231 27 7 2
0.241156 -1.39748 0.590403 30 7 8
0.241156 -1.39748 0.632574 32 9 9
0.241156 -1.39748 0.674746 37 7 7
0.241156 -1.39748 0.716918 39 8 8
0.241156 -1.39748 0.759089 43 9 7
0.241156 -1.39748 0.801261 41 8 6
0.241156 -1.39748 0.843433 37 7 10
0.241156 -1.39748 0.885604 45 8 7
0.241156 -1.39748 0.927776 38 8 8
0.241156 -1.39748 0.969948 42 8 6
0.241156 -1.39748 1.01212 32 10 5
0.241156 -1.39748 1.05429 30 8 6
0.241156 -1.39748 1.09646 26 6 6
0.241156 -1.39748 1.13863 39 8 5
0.241156 -1.39748 1.18081 82 13 11
0.241156 -1.39748 1.22298 59 12 7
0.241156 -1.39748 1.26515 89 13 13
0.241156 -1.39748 1.30732 216 132 109
0.241156 -1.39748 1.34949 227 146 111
0.241156 -1.35531 0.463888 41 9 7
0.241156 -1.35531 0.50606 30 8 6
0.241156 -1.35531 0.548231 24 6 7
0.241156 -1.35531 0.590403 28 7 8
0.241156 -1.35531 0.632574 25 6 4
0.241156 -1.35531 0.674746 32 8 6
0.241156 -1.35531 0.716918 35 7 6
0.241156 -1.35531 0.759089 33 7 7
0.241156 -1.35531 0.801261 33 7 5
0.241156 -1.35531 0.843433 30 6 8
0.241156 -1.35531 0.885604 31 6 6
0.241156 -1.35531 0.927776 29 5 5
0.241156 -1.35531 0.969948 29 9 5
0.241156 -1.35531 1.01212 25 6 5
0.241156 -1.35531 1.05429 26 6 7
0.241156 -1.35531 1.09646 45 10 7
0.241156 -1.35531 1.13863 39 10 11
0.241156 -1.35531 1.18081 63 12 6
0.241156 -1.35531 1.22298 92 15 11
0.241156 -1.35531 1.26515 48 10 3
0.241156 -1.35531 1.30732 162 93 70
0.241156 -1.35531 1.34949 191 116 88
0.241156 -1.35531 1.39166 235 131 96
0.241156 -1.35531 1.43384 255 163 134
0.241156 -1.31313 0.674746 89 21 19
0.241156 -1.31313 0.716918 136 55 47
0.241156 -1.31313 0.759089 172 91 66
0.241156 -1.31313 0.801261 173 98 78
0.241156 -1.31313 0.843433 158 98 73
0.241156 -1.31313 0.885604 134 81 61
0.241156 -1.31313 0.927776 115 72 61
0.241156 -1.31313 0.969948 87 48 54
0.241156 -1.31313 1.01212 51 10 15
0.241156 -1.31313 1.09646 18 6 13
0.241156 -1.31313 1.13863 51 21 14
0.241156 -1.31313 1.18081 68 14 8
0.241156 -1.31313 1.22298 75 13 14
0.241156 -1.31313 1.26515 65 9 12
0.241156 -1.31313 1.30732 81 50 37
0.241156 -1.31313 1.34949 99 65 60
0.241156 -1.31313 1.39166 132 90 68
0.241156 -1.31313 1.43384 158 106 86
0.241156 -1.31313 1.47601 136 60 58
0.241156 -1.31313 1.51818 85 48 48
0.241156 -1.31313 1.56035 74 82 70
0.241156 -1.27096 0.759089 230 140 108
0.241156 -1.27096 0.801261 215 131 96
0.241156 -1.27096 0.843433 148 77 57
0.241156 -1.27096 0.885604 89 48 40
0.241156 -1.27096 1.13863 126 78 63
0.241156 -1.27096 1.18081 104 76 69
0.241156 -1.27096 1.22298 67 12 10
0.241156 -1.27096 1.26515 50 8 7
0.241156 -1.27096 1.30732 50 26 19
0.241156 -1.27096 1.34949 75 44 28
0.241156 -1.27096 1.39166 174 87 73
0.241156 -1.27096 1.43384 57 35 28
0.241156 -1.27096 1.47601 139 108 78
0.241156 -1.27096 1.51818 213 110 75
0.241156 -1.27096 1.56035 42 26 22
0.241156 -1.27096 1.60252 72 49 48
0.241156 -1.22879 1.22298 137 87 71
0.241156 -1.22879 1.26515 64 11 9
0.241156 -1.22879 1.30732 44 8 11
0.241156 -1.22879 1.34949 57 36 27
0.241156 -1.22879 1.39166 49 34 31
0.241156 -1.22879 1.43384 124 68 53
0.241156 -1.22879 1.47601 182 100 74
0.241156 -1.22879 1.51818 48 40 24
0.241156 -1.22879 1.56035 42 31 26
0.241156 -1.22879 1.60252 42 26 25
0.241156 -1.18662 1.51818 27 18 17
0.241156 -1.18662 1.56035 35 23 15
0.241156 -1.18662 1.60252 35 23 17
0.241156 -1.14445 1.51818 25 23 16
0.241156 -1.14445 1.56035 36 26 23
0.241156 -1.14445 1.60252 38 18 26
0.283328 -1.60834 0.0843433 107 68 52
0.283328 -1.56616 0.0421716 42 32 24
0.283328 -1.56616 0.0843433 46 34 25
0.283328 -1.56616 0.126515 85 55 40
0.283328 -1.56616 0.168687 85 62 44
0.283328 -1.56616 0.210858 74 58 42
0.283328 -1.56616 0.25303 69 65 43
0.283328 -1.56616 1.05429 51 24 11
0.283328 -1.52399 0.168687 54 37 27
0.283328 -1.52399 0.210858 65 43 28
0.283328 -1.52399 0.25303 71 48 33
0.283328 -1.52399 0.295201 79 52 40
0.283328 -1.52399 0.337373 71 51 36
0.283328 -1.52399 0.379545 33 16 12
0.283328 -1.52399 0.421716 40 10 10
0.283328 -1.52399 0.463888 61 11 9
0.283328 -1.52399 0.50606 61 10 10
0.283328 -1.52399 0.548231 67 24 35
0.283328 -1.52399 0.590403 54 31 36
0.283328 -1.52399 0.843433 50 60 50
0.283328 -1.52399 0.885604 41 22 9
0.283328 -1.52399 0.927776 35 16 7
0.283328 -1.52399 0.969948 30 6 9
0.283328 -1.52399 1.01212 39 8 8
0.283328 -1.52399 1.05429 30 7 8
0.283328 -1.52399 1.09646 34 6 7
0.283328 -1.52399 1.13863 63 14 16
0.283328 -1.52399 1.18081 31 7 9
0.283328 -1.52399 1.22298 47 8 9
0.283328 -1.52399 1.26515 59 21 11
0.283328 -1.52399 1.30732 68 65 65
0.283328 -1.48182 0.25303 46 33 25
0.283328 -1.48182 0.295201 52 36 31
0.283328 -1.48182 0.337373 40 11 7
0.283328 -1.48182 0.379545 32 9 4
0.283328 -1.48182 0.421716 40 8 10
0.283328 -1.48182 0.463888 45 8 10
0.283328 -1.48182 0.50606 47 9 9
0.283328 -1.48182 0.548231 53 10 12
0.283328 -1.48182 0.590403 56 11 9
0.283328 -1.48182 0.632574 60 13 13
0.283328 -1.48182 0.674746 53 10 6
0.283328 -1.48182 0.716918 52 9 8
0.283328 -1.48182 0.759089 47 8 7
0.283328 -1.48182 0.801261 40 7 6
0.283328 -1.48182 0.843433 41 8 12
0.283328 -1.48182 0.885604 37 8 7
0.283328 -1.48182 0.927776 41 7 6
0.283328 -1.48182 0.969948 38 7 6
0.283328 -1.48182 1.01212 49 9 11
0.283328 -1.48182 1.05429 38 7 7
0.283328 -1.48182 1.09646 29 8 7
0.283328 -1.48182 1.13863 55 8 6
0.283328 -1.48182 1.18081 103 16 12
0.283328 -1.48182 1.22298 42 8 11
0.283328 -1.48182 1.26515 58 9 11
0.283328 -1.48182 1.30732 73 12 8
0.283328 -1.43965 0.295201 55 56 60
0.283328 -1.43965 0.337373 45 42 40
0.283328 -1.43965 0.379545 31 8 12
0.283328 -1.43965 0.421716 28 7 7
0.283328 -1.43965 0.463888 31 8 7
0.283328 -1.43965 0.50606 35 8 7
0.283328 -1.43965 0.548231 38 9 8
0.283328 -1.43965 0.590403 43 10 6
0.283328 -1.43965 0.632574 44 10 7
0.283328 -1.43965 0.674746 47 9 6
0.283328 -1.43965 0.716918 53 10 7
0.283328 -1.43965 0.759089 54 10 10
0.283328 -1.43965 0.801261 49 8 10
0.283328 -1.43965 0.843433 47 6 4
0.283328 -1.43965 0.885604 41 8 7
0.283328 -1.43965 0.927776 49 9 5
0.283328 -1.43965 0.969948 36 7 7
0.283328 -1.43965 1.01212 41 8 7
0.283328 -1.43965 1.05429 36 9 12
0.283328 -1.43965 1.09646 49 11 10
0.283328 -1.43965 1.13863 92 16 14
0.283328 -1.43965 1.18081 54 10 8
0.283328 -1.43965 1.22298 181 69 39
0.283328 -1.43965 1.26515 185 116 99
0.283328 -1.43965 1.30732 146 48 64
0.283328 -1.43965 1.34949 71 15 10
0.283328 -1.39748 0.463888 25 6 6
0.283328 -1.39748 0.50606 30 9 2
0.283328 -1.39748 0.548231 31 8 5
0.283328 -1.39748 0.590403 32 7 13
0.283328 -1.39748 0.632574 35 7 7
0.283328 -1.39748 0.674746 39 7 5
0.283328 -1.39748 0.716918 43 8 7
0.283328 -1.39748 0.759089 41 8 9
0.283328 -1.39748 0.801261 37 7 8
0.283328 -1.39748 0.843433 45 8 8
0.283328 -1.39748 0.885604 37 8 8
0.283328 -1.39748 0.927776 42 8 1
0.283328 -1.39748 0.969948 32 5 7
0.283328 -1.39748 1.01212 35 7 6
0.283328 -1.39748 1.05429 26 7 7
0.283328 -1.39748 1.09646 47 8 6
0.283328 -1.39748 1.13863 77 14 9
0.283328 -1.39748 1.18081 59 9 8
0.283328 -1.39748 1.22298 102 15 15
0.283328 -1.39748 1.26515 214 141 124
0.283328 -1.39748 1.30732 230 137 108
0.283328 -1.39748 1.34949 237 143 108
0.283328 -1.39748 1.39166 105 17 12
0.283328 -1.35531 0.463888 30 7 8
0.283328 -1.35531 0.50606 24 7 4
0.283328 -1.35531 0.548231 28 7 6
0.283328 -1.35531 0.590403 25 5 10
0.283328 -1.35531 0.632574 32 6 7
0.283328 -1.35531 0.674746 35 6 8
0.283328 -1.35531 0.716918 33 8 7
0.283328 -1.35531 0.759089 34 7 6
0.283328 -1.35531 0.801261 34 10 3
0.283328 -1.35531 0.843433 38 7 6
0.283328 -1.35531 0.885604 29 6 6
0.283328 -1.35531 0.927776 29 6 5
0.283328 -1.35531 0.969948 29 4 5
0.283328 -1.35531 1.01212 31 7 4
0.283328 -1.35531 1.05429 28 9 7
0.283328 -1.35531 1.09646 45 11 10
0.283328 -1.35531 1.13863 66 11 10
0.283328 -1.35531 1.18081 93 11 12
0.283328 -1.35531 1.22298 52 9 8
0.283328 -1.35531 1.26515 143 74 80
0.283328 -1.35531 1.30732 190 109 89
0.283328 -1.35531 1.34949 188 120 90
0.283328 -1.35531 1.39166 255 144 131
0.283328 -1.35531 1.43384 97 15 11
0.283328 -1.31313 0.463888 34 8 6
0.283328 -1.31313 0.50606 33 7 5
0.283328 -1.31313 0.548231 35 7 10
0.283328 -1.31313 0.590403 37 9 8
0.283328 -1.31313 0.632574 35 9 2
0.283328 -1.31313 0.674746 59 30 47
0.283328 -1.31313 0.716918 97 65 66
0.283328 -1.31313 0.759089 144 90 78
0.283328 -1.31313 0.801261 146 92 73
0.283328 -1.31313 0.843433 99 66 67
0.283328 -1.31313 0.885604 62 19 38
0.283328 -1.31313 0.927776 95 24 11
0.283328 -1.31313 0.969948 51 8 5
0.283328 -1.31313 1.01212 49 6 8
0.283328 -1.31313 1.05429 17 5 4
0.283328 -1.31313 1.09646 34 16 10
0.283328 -1.31313 1.13863 72 18 13
0.283328 -1.31313 1.18081 87 16 14
0.283328 -1.31313 1.22298 65 11 10
0.283328 -1.31313 1.26515 96 40 34
0.283328 -1.31313 1.30732 103 55 43
0.283328 -1.31313 1.34949 105 72 65
0.283328 -1.31313 1.39166 142 87 67
0.283328 -1.31313 1.43384 172 96 87
0.283328 -1.31313 1.47601 167 93 87
0.283328 -1.27096 0.50606 181 93 74
0.283328 -1.27096 0.674746 213 133 105
0.283328 -1.27096 0.716918 227 134 113
0.283328 -1.27096 0.759089 218 131 100
0.283328 -1.27096 0.801261 148 83 55
0.283328 -1.27096 0.843433 95 55 42
0.283328 -1.27096 0.885604 119 76 60
0.283328 -1.27096 1.18081 67 11 7
0.283328 -1.27096 1.22298 48 8 10
0.283328 -1.27096 1.26515 47 20 7
0.283328 -1.27096 1.30732 66 26 16
0.283328 -1.27096 1.34949 147 81 60
0.283328 -1.27096 1.39166 124 64 47
0.283328 -1.27096 1.43384 99 63 47
0.283328 -1.27096 1.47601 174 93 54
0.283328 -1.27096 1.51818 42 24 25
0.283328 -1.27096 1.56035 47 36 38
0.283328 -1.27096 1.60252 55 70 39
0.283328 -1.22879 1.26515 48 6 5
0.283328 -1.22879 1.30732 49 32 24
0.283328 -1.22879 1.34949 65 40 33
0.283328 -1.22879 1.39166 99 62 50
0.283328 -1.22879 1.51818 36 26 24
0.283328 -1.22879 1.56035 52 31 32
0.283328 -1.22879 1.60252 32 23 19
0.283328 -1.18662 1.51818 40 28 26
0.283328 -1.18662 1.56035 34 25 22
0.283328 -1.18662 1.60252 45 22 14
0.283328 -1.14445 1.51818 30 23 14
0.283328 -1.14445 1.56035 38 29 18
0.283328 -1.14445 1.60252 51 49 53
0.325499 -1.52399 0.463888 61 10 10
0.325499 -1.52399 0.50606 67 24 35
0.325499 -1.52399 0.548231 59 62 36
0.325499 -1.52399 0.843433 41 29 17
0.325499 -1.52399 0.885604 38 36 40
0.325499 -1.52399 0.927776 29 6 0
0.325499 -1.52399 0.969948 39 6 5
0.325499 -1.52399 1.01212 37 3 4
0.325499 -1.52399 1.05429 34 5 9
0.325499 -1.52399 1.09646 43 10 16
0.325499 -1.52399 1.13863 31 7 8
0.325499 -1.52399 1.18081 64 25 10
0.325499 -1.52399 1.22298 68 22 11
0.325499 -1.48182 0.421716 45 9 4
0.325499 -1.48182 0.463888 47 10 8
0.325499 -1.48182 0.50606 53 10 20
0.325499 -1.48182 0.548231 56 11 10
0.325499 -1.48182 0.590403 60 13 4
0.325499 -1.48182 0.632574 53 10 6
0.325499 -1.48182 0.674746 52 9 8
0.325499 -1.48182 0.716918 47 8 7
0.325499 -1.48182 0.759089 42 7 4
0.325499 -1.48182 0.801261 43 6 12
0.325499 -1.48182 0.843433 41 8 7
0.325499 -1.48182 0.885604 39 8 6
0.325499 -1.48182 0.927776 40 9 6
0.325499 -1.48182 0.969948 42 9 11
0.325499 -1.48182 1.01212 33 8 8
0.325499 -1.48182 1.05429 47 10 7
0.325499 -1.48182 1.09646 40 8 9
0.325499 -1.48182 1.13863 49 14 12
0.325499 -1.48182 1.18081 43 21 9
0.325499 -1.48182 1.22298 62 11 9
0.325499 -1.48182 1.26515 43 12 8
0.325499 -1.48182 1.30732 61 13 7
0.325499 -1.48182 1.34949 77 40 37
0.325499 -1.43965 0.50606 38 7 6
0.325499 -1.43965 0.548231 43 8 17
0.325499 -1.43965 0.590403 44 9 10
0.325499 -1.43965 0.632574 47 8 7
0.325499 -1.43965 0.674746 53 10 8
0.325499 -1.43965 0.716918 54 7 6
0.325499 -1.43965 0.759089 53 8 8
0.325499 -1.43965 0.801261 48 8 11
0.325499 -1.43965 0.843433 41 7 6
0.325499 -1.43965 0.885604 49 9 6
0.325499 -1.43965 0.927776 38 7 7
0.325499 -1.43965 0.969948 41 9 6
0.325499 -1.43965 1.01212 34 6 5
0.325499 -1.43965 1.05429 50 10 7
0.325499 -1.43965 1.09646 89 14 13
0.325499 -1.43965 1.13863 65 9 9
0.325499 -1.43965 1.18081 123 39 75
0.325499 -1.43965 1.22298 194 112 89
0.325499 -1.43965 1.26515 197 104 50
0.325499 -1.43965 1.30732 79 12 7
0.325499 -1.43965 1.34949 71 11 6
0.325499 -1.43965 1.39166 100 39 21
0.325499 -1.39748 0.50606 32 7 7
0.325499 -1.39748 0.548231 35 7 8
0.325499 -1.39748 0.590403 37 7 7
0.325499 -1.39748 0.632574 36 8 5
0.325499 -1.39748 0.674746 44 8 7
0.325499 -1.39748 0.716918 47 9 9
0.325499 -1.39748 0.759089 41 8 8
0.325499 -1.39748 0.801261 42 8 9
0.325499 -1.39748 0.843433 38 8 8
0.325499 -1.39748 0.885604 43 9 1
0.325499 -1.39748 0.927776 32 8 5
0.325499 -1.39748 0.969948 33 9 13
0.325499 -1.39748 1.01212 30 8 7
0.325499 -1.39748 1.05429 44 8 8
0.325499 -1.39748 1.09646 82 15 9
0.325499 -1.39748 1.13863 56 9 8
0.325499 -1.39748 1.18081 103 18 19
0.325499 -1.39748 1.22298 228 144 119
0.325499 -1.39748 1.26515 213 139 122
0.325499 -1.39748 1.30732 248 156 121
0.325499 -1.39748 1.34949 101 18 18
0.325499 -1.39748 1.39166 115 18 14
0.325499 -1.35531 0.463888 27 6 7
0.325499 -1.35531 0.50606 26 7 6
0.325499 -1.35531 0.548231 25 5 10
0.325499 -1.35531 0.590403 34 8 7
0.325499 -1.35531 0.632574 35 7 8
0.325499 -1.35531 0.674746 34 7 6
0.325499 -1.35531 0.716918 35 7 5
0.325499 -1.35531 0.759089 34 7 3
0.325499 -1.35531 0.801261 40 8 5
0.325499 -1.35531 0.843433 34 7 5
0.325499 -1.35531 0.885604 29 6 10
0.325499 -1.35531 0.927776 29 6 5
0.325499 -1.35531 0.969948 33 7 6
0.325499 -1.35531 1.01212 28 6 3
0.325499 -1.35531 1.05429 56 9 3
0.325499 -1.35531 1.09646 66 11 7
0.325499 -1.35531 1.13863 72 12 8
0.325499 -1.35531 1.18081 49 9 11
0.325499 -1.35531 1.22298 106 25 53
0.325499 -1.35531 1.26515 184 112 88
0.325499 -1.35531 1.30732 191 112 64
0.325499 -1.35531 1.34949 255 158 133
0.325499 -1.35531 1.39166 107 18 16
0.325499 -1.35531 1.43384 85 14 7
0.325499 -1.31313 0.463888 37 9 5
0.325499 -1.31313 0.50606 36 7 10
0.325499 -1.31313 0.548231 34 8 8
0.325499 -1.31313 0.590403 27 6 2
0.325499 -1.31313 0.632574 29 7 7
0.325499 -1.31313 0.674746 39 10 21
0.325499 -1.31313 0.716918 138 50 41
0.325499 -1.31313 0.759089 147 65 45
0.325499 -1.31313 0.801261 99 26 23
0.325499 -1.31313 0.843433 62 8 7
0.325499 -1.31313 0.885604 48 6 5
0.325499 -1.31313 0.927776 49 8 8
0.325499 -1.31313 0.969948 31 7 6
0.325499 -1.31313 1.01212 25 6 4
0.325499 -1.31313 1.05429 28 19 15
0.325499 -1.31313 1.13863 92 16 12
0.325499 -1.31313 1.18081 62 11 9
0.325499 -1.31313 1.22298 73 27 16
0.325499 -1.31313 1.26515 110 64 55
0.325499 -1.31313 1.30732 103 70 52
0.325499 -1.31313 1.34949 132 72 63
0.325499 -1.31313 1.39166 185 130 99
0.325499 -1.31313 1.43384 145 46 60
0.325499 -1.27096 0.463888 116 66 74
0.325499 -1.27096 0.50606 155 93 89
0.325499 -1.27096 0.548231 178 109 96
0.325499 -1.27096 0.590403 189 118 88
0.325499 -1.27096 0.632574 213 126 105
0.325499 -1.27096 0.674746 227 129 106
0.325499 -1.27096 0.716918 218 119 100
0.325499 -1.27096 0.759089 143 80 77
0.325499 -1.27096 0.801261 101 69 53
0.325499 -1.27096 0.843433 119 76 60
0.325499 -1.27096 0.885604 136 83 58
0.325499 -1.27096 0.927776 134 82 67
0.325499 -1.27096 1.22298 44 6 9
0.325499 -1.27096 1.26515 79 44 29
0.325499 -1.27096 1.30732 119 79 70
0.325499 -1.27096 1.34949 150 90 62
0.325499 -1.27096 1.39166 103 69 61
0.325499 -1.27096 1.43384 173 103 84
0.325499 -1.27096 1.56035 68 82 56
0.325499 -1.22879 1.30732 82 63 47
0.325499 -1.22879 1.34949 177 102 76
0.325499 -1.22879 1.39166 153 101 75
0.325499 -1.22879 1.51818 43 28 30
0.325499 -1.22879 1.56035 53 33 25
0.325499 -1.22879 1.60252 56 72 59
0.325499 -1.18662 1.60252 18 9 10
0.367671 -1.52399 0.885604 29 6 0
0.367671 -1.52399 0.927776 27 7 5
0.367671 -1.52399 0.969948 28 6 7
0.367671 -1.52399 1.01212 23 4 9
0.367671 -1.52399 1.05429 72 12 9
0.367671 -1.52399 1.09646 34 9 8
0.367671 -1.52399 1.13863 64 16 8
0.367671 -1.52399 1.18081 57 12 8
0.367671 -1.48182 0.548231 60 14 4
0.367671 -1.48182 0.590403 55 11 6
0.367671 -1.48182 0.632574 51 10 8
0.367671 -1.48182 0.674746 45 9 7
0.367671 -1.48182 0.716918 42 7 4
0.367671 -1.48182 0.759089 43 9 7
0.367671 -1.48182 0.801261 41 10 15
0.367671 -1.48182 0.843433 37 8 6
0.367671 -1.48182 0.885604 40 7 1
0.367671 -1.48182 0.927776 42 8 6
0.367671 -1.48182 0.969948 36 8 5
0.367671 -1.48182 1.01212 37 10 11
0.367671 -1.48182 1.05429 51 6 7
0.367671 -1.48182 1.09646 31 6 6
0.367671 -1.48182 1.13863 74 52 68
0.367671 -1.48182 1.18081 57 10 10
0.367671 -1.48182 1.22298 42 6 9
0.367671 -1.48182 1.26515 66 9 8
0.367671 -1.48182 1.30732 64 38 38
0.367671 -1.43965 0.50606 45 10 17
0.367671 -1.43965 0.548231 47 9 7
0.367671 -1.43965 0.590403 52 10 8
0.367671 -1.43965 0.632574 52 11 11
0.367671 -1.43965 0.674746 52 10 7
0.367671 -1.43965 0.716918 48 10 8
0.367671 -1.43965 0.759089 47 10 11
0.367671 -1.43965 0.801261 41 7 6
0.367671 -1.43965 0.843433 48 8 6
0.367671 -1.43965 0.885604 35 7 7
0.367671 -1.43965 0.927776 50 9 6
0.367671 -1.43965 0.969948 34 7 5
0.367671 -1.43965 1.01212 51 10 12
0.367671 -1.43965 1.05429 81 14 13
0.367671 -1.43965 1.09646 54 10 10
0.367671 -1.43965 1.13863 105 24 14
0.367671 -1.43965 1.18081 185 126 106
0.367671 -1.43965 1.22298 154 85 99
0.367671 -1.43965 1.26515 89 16 12
0.367671 -1.43965 1.30732 79 16 12
0.367671 -1.43965 1.34949 108 20 14
0.367671 -1.39748 0.463888 33 8 7
0.367671 -1.39748 0.50606 39 9 8
0.367671 -1.39748 0.548231 41 8 5
0.367671 -1.39748 0.590403 36 7 7
0.367671 -1.39748 0.632574 44 8 8
0.367671 -1.39748 0.674746 44 9 5
0.367671 -1.39748 0.716918 42 8 6
0.367671 -1.39748 0.759089 42 8 7
0.367671 -1.39748 0.801261 38 7 6
0.367671 -1.39748 0.843433 43 8 8
0.367671 -1.39748 0.885604 36 7 7
0.367671 -1.39748 0.927776 34 8 7
0.367671 -1.39748 0.969948 30 7 6
0.367671 -1.39748 1.01212 41 9 6
0.367671 -1.39748 1.05429 82 13 10
0.367671 -1.39748 1.09646 62 9 9
0.367671 -1.39748 1.13863 103 15 8
0.367671 -1.39748 1.18081 211 134 105
0.367671 -1.39748 1.22298 219 134 110
0.367671 -1.39748 1.26515 235 139 118
0.367671 -1.39748 1.30732 98 16 10
0.367671 -1.39748 1.34949 108 15 15
0.367671 -1.39748 1.39166 79 11 10
0.367671 -1.39748 1.43384 209 104 84
0.367671 -1.35531 0.421716 25 8 6
0.367671 -1.35531 0.463888 26 7 6
0.367671 -1.35531 0.50606 25 6 3
0.367671 -1.35531 0.548231 34 7 6
0.367671 -1.35531 0.590403 35 6 1
0.367671 -1.35531 0.632574 34 7 5
0.367671 -1.35531 0.674746 35 7 7
0.367671 -1.35531 0.716918 34 7 8
0.367671 -1.35531 0.759089 40 7 5
0.367671 -1.35531 0.801261 34 6 6
0.367671 -1.35531 0.843433 34 7 5
0.367671 -1.35531 0.885604 29 6 7
0.367671 -1.35531 0.927776 37 9 6
0.367671 -1.35531 0.969948 23 6 3
0.367671 -1.35531 1.01212 61 11 7
0.367671 -1.35531 1.05429 65 11 10
0.367671 -1.35531 1.09646 64 12 6
0.367671 -1.35531 1.13863 61 12 12
0.367671 -1.35531 1.18081 81 17 12
0.367671 -1.35531 1.22298 205 115 88
0.367671 -1.35531 1.26515 207 124 92
0.367671 -1.35531 1.30732 224 140 113
0.367671 -1.35531 1.34949 137 18 12
0.367671 -1.35531 1.39166 98 15 11
0.367671 -1.35531 1.43384 223 156 126
0.367671 -1.35531 1.47601 255 201 156
0.367671 -1.31313 0.463888 36 6 3
0.367671 -1.31313 0.50606 34 7 5
0.367671 -1.31313 0.548231 27 6 2
0.367671 -1.31313 0.590403 29 6 6
0.367671 -1.31313 0.632574 39 7 3
0.367671 -1.31313 0.674746 57 6 5
0.367671 -1.31313 0.716918 70 7 7
0.367671 -1.31313 0.759089 55 11 23
0.367671 -1.31313 0.801261 35 7 7
0.367671 -1.31313 0.843433 34 8 6
0.367671 -1.31313 0.885604 40 8 8
0.367671 -1.31313 0.927776 28 6 7
0.367671 -1.31313 0.969948 25 6 3
0.367671 -1.31313 1.01212 22 10 10
0.367671 -1.31313 1.13863 79 13 7
0.367671 -1.31313 1.18081 54 10 7
0.367671 -1.31313 1.22298 112 62 46
0.367671 -1.31313 1.26515 125 75 68
0.367671 -1.31313 1.30732 117 73 63
0.367671 -1.31313 1.34949 199 122 82
0.367671 -1.31313 1.39166 111 20 17
0.367671 -1.31313 1.43384 173 129 99
0.367671 -1.27096 0.463888 155 71 51
0.367671 -1.27096 0.50606 178 95 75
0.367671 -1.27096 0.548231 189 106 87
0.367671 -1.27096 0.590403 203 117 95
0.367671 -1.27096 0.632574 214 122 97
0.367671 -1.27096 0.674746 210 129 100
0.367671 -1.27096 0.716918 146 98 77
0.367671 -1.27096 0.759089 123 73 53
0.367671 -1.27096 0.801261 132 79 58
0.367671 -1.27096 0.843433 135 83 64
0.367671 -1.27096 0.885604 136 81 54
0.367671 -1.27096 0.927776 126 70 55
0.367671 -1.27096 1.26515 95 50 47
0.367671 -1.27096 1.30732 130 72 58
0.367671 -1.27096 1.34949 172 127 99
0.367671 -1.27096 1.39166 180 124 101
0.367671 -1.27096 1.43384 53 30 22
0.367671 -1.22879 0.463888 221 137 107
0.367671 -1.22879 0.50606 203 128 99
0.367671 -1.22879 0.548231 184 120 94
0.367671 -1.22879 0.590403 186 122 90
0.367671 -1.22879 0.632574 190 112 75
0.409843 -1.52399 0.759089 58 60 38
0.409843 -1.52399 0.801261 58 61 41
0.409843 -1.52399 0.843433 26 18 12
0.409843 -1.52399 0.885604 27 6 9
0.409843 -1.48182 0.548231 56 10 8
0.409843 -1.48182 0.590403 54 10 4
0.409843 -1.48182 0.632574 47 9 7
0.409843 -1.48182 0.674746 42 8 14
0.409843 -1.48182 0.716918 43 8 9
0.409843 -1.48182 0.759089 41 7 2
0.409843 -1.48182 0.801261 37 8 1
0.409843 -1.48182 0.843433 40 7 1
0.409843 -1.48182 0.885604 39 7 6
0.409843 -1.48182 0.927776 35 7 8
0.409843 -1.48182 0.969948 67 11 9
0.409843 -1.48182 1.01212 59 10 7
0.409843 -1.48182 1.05429 48 7 7
0.409843 -1.48182 1.09646 94 54 68
0.409843 -1.48182 1.13863 57 12 9
0.409843 -1.48182 1.18081 41 7 8
0.409843 -1.43965 0.463888 45 8 6
0.409843 -1.43965 0.50606 47 9 6
0.409843 -1.43965 0.548231 52 10 8
0.409843 -1.43965 0.590403 52 10 8
0.409843 -1.43965 0.632574 52 10 5
0.409843 -1.43965 0.674746 48 9 8
0.409843 -1.43965 0.716918 47 9 8
0.409843 -1.43965 0.759089 41 7 4
0.409843 -1.43965 0.801261 46 7 7
0.409843 -1.43965 0.843433 40 8 6
0.409843 -1.43965 0.885604 50 9 8
0.409843 -1.43965 0.927776 34 7 5
0.409843 -1.43965 0.969948 50 9 1
0.409843 -1.43965 1.01212 81 12 8
0.409843 -1.43965 1.05429 67 8 7
0.409843 -1.43965 1.09646 85 15 8
0.409843 -1.43965 1.13863 200 115 94
0.409843 -1.43965 1.18081 154 53 49
0.409843 -1.43965 1.22298 71 10 12
0.409843 -1.43965 1.26515 100 16 14
0.409843 -1.43965 1.30732 132 20 18
0.409843 -1.39748 0.421716 33 7 6
0.409843 -1.39748 0.463888 39 7 15
0.409843 -1.39748 0.50606 41 9 8
0.409843 -1.39748 0.548231 39 8 7
0.409843 -1.39748 0.590403 48 9 8
0.409843 -1.39748 0.632574 42 10 5
0.409843 -1.39748 0.674746 44 9 6
0.409843 -1.39748 0.716918 47 10 7
0.409843 -1.39748 0.759089 38 9 6
0.409843 -1.39748 0.801261 45 9 8
0.409843 -1.39748 0.843433 38 7 2
0.409843 -1.39748 0.885604 40 9 6
0.409843 -1.39748 0.927776 35 8 6
0.409843 -1.39748 0.969948 37 8 10
0.409843 -1.39748 1.01212 66 10 7
0.409843 -1.39748 1.05429 68 12 9
0.409843 -1.39748 1.09646 77 13 12
0.409843 -1.39748 1.13863 183 132 106
0.409843 -1.39748 1.18081 215 143 113
0.409843 -1.39748 1.22298 216 133 114
0.409843 -1.39748 1.26515 97 16 14
0.409843 -1.39748 1.30732 81 14 9
0.409843 -1.39748 1.34949 83 16 13
0.409843 -1.39748 1.39166 163 107 94
0.409843 -1.39748 1.43384 90 72 61
0.409843 -1.35531 0.421716 27 7 3
0.409843 -1.35531 0.463888 32 6 12
0.409843 -1.35531 0.50606 34 7 6
0.409843 -1.35531 0.548231 37 7 1
0.409843 -1.35531 0.590403 36 7 5
0.409843 -1.35531 0.632574 37 6 7
0.409843 -1.35531 0.674746 38 7 8
0.409843 -1.35531 0.716918 40 8 5
0.409843 -1.35531 0.759089 34 8 6
0.409843 -1.35531 0.801261 39 8 9
0.409843 -1.35531 0.843433 37 7 7
0.409843 -1.35531 0.885604 39 7 13
0.409843 -1.35531 0.927776 24 6 8
0.409843 -1.35531 0.969948 61 11 8
0.409843 -1.35531 1.01212 49 8 6
0.409843 -1.35531 1.05429 64 11 7
0.409843 -1.35531 1.09646 71 10 7
0.409843 -1.35531 1.13863 81 13 16
0.409843 -1.35531 1.18081 207 130 104
0.409843 -1.35531 1.22298 209 119 100
0.409843 -1.35531 1.26515 209 118 101
0.409843 -1.35531 1.30732 139 21 12
0.409843 -1.35531 1.34949 101 17 12
0.409843 -1.35531 1.39166 234 153 102
0.409843 -1.35531 1.43384 255 187 140
0.409843 -1.35531 1.47601 255 221 176
0.409843 -1.31313 0.379545 27 4 6
0.409843 -1.31313 0.421716 26 5 5
0.409843 -1.31313 0.463888 30 8 9
0.409843 -1.31313 0.50606 26 6 2
0.409843 -1.31313 0.548231 27 6 6
0.409843 -1.31313 0.590403 29 7 3
0.409843 -1.31313 0.632574 29 6 6
0.409843 -1.31313 0.674746 29 7 5
0.409843 -1.31313 0.716918 32 6 6
0.409843 -1.31313 0.759089 30 6 6
0.409843 -1.31313 0.801261 35 7 5
0.409843 -1.31313 0.843433 39 7 4
0.409843 -1.31313 0.885604 28 4 8
0.409843 -1.31313 0.927776 25 6 6
0.409843 -1.31313 0.969948 12 2 5
0.409843 -1.31313 1.26515 107 57 50
0.409843 -1.31313 1.30732 199 137 104
0.409843 -1.31313 1.34949 129 17 13
0.409843 -1.31313 1.39166 103 22 12
0.409843 -1.31313 1.43384 255 179 141
0.409843 -1.31313 1.47601 88 99 100
0.409843 -1.27096 0.379545 47 7 2
0.409843 -1.27096 0.421716 79 13 9
0.409843 -1.27096 0.463888 134 51 33
0.409843 -1.27096 0.50606 161 98 87
0.409843 -1.27096 0.548231 177 112 95
0.409843 -1.27096 0.590403 195 121 97
0.409843 -1.27096 0.632574 197 115 90
0.409843 -1.27096 0.674746 178 106 75
0.409843 -1.27096 0.716918 125 77 63
0.409843 -1.27096 0.759089 132 78 61
0.409843 -1.27096 0.801261 135 82 64
0.409843 -1.27096 0.843433 126 71 57
0.409843 -1.27096 0.885604 109 59 44
0.409843 -1.27096 1.34949 222 138 97
0.409843 -1.27096 1.39166 79 33 27
0.409843 -1.27096 1.43384 44 29 24
0.409843 -1.22879 0 73 49 43
0.409843 -1.22879 0.421716 232 132 101
0.409843 -1.22879 0.463888 226 136 104
0.409843 -1.22879 0.50606 215 134 94
0.409843 -1.22879 0.548231 215 131 90
0.409843 -1.22879 0.590403 220 128 96
0.409843 -1.22879 0.632574 219 128 92
0.409843 -1.18662 0 105 58 47
0.409843 -1.18662 0.548231 32 6 8
0.452014 -1.48182 0.632574 45 12 14
0.452014 -1.48182 0.674746 42 10 9
0.452014 -1.48182 0.716918 40 8 2
0.452014 -1.48182 0.759089 39 9 1
0.452014 -1.48182 0.801261 39 8 8
0.452014 -1.48182 0.843433 39 10 6
0.452014 -1.48182 0.885604 36 7 8
0.452014 -1.48182 0.927776 50 11 9
0.452014 -1.48182 0.969948 59 10 12
0.452014 -1.43965 0.463888 47 9 6
0.452014 -1.43965 0.50606 55 9 8
0.452014 -1.43965 0.548231 53 9 8
0.452014 -1.43965 0.590403 46 9 5
0.452014 -1.43965 0.632574 47 10 8
0.452014 -1.43965 0.674746 43 9 8
0.452014 -1.43965 0.716918 38 10 8
0.452014 -1.43965 0.759089 43 7 11
0.452014 -1.43965 0.801261 43 8 6
0.452014 -1.43965 0.843433 39 8 8
0.452014 -1.43965 0.885604 39 7 5
0.452014 -1.43965 0.927776 50 10 7
0.452014 -1.43965 0.969948 46 8 9
0.452014 -1.43965 1.01212 53 9 12
0.452014 -1.43965 1.05429 104 16 14
0.452014 -1.39748 0.421716 39 7 15
0.452014 -1.39748 0.463888 41 9 8
0.452014 -1.39748 0.50606 39 9 8
0.452014 -1.39748 0.548231 48 7 7
0.452014 -1.39748 0.590403 42 6 11
0.452014 -1.39748 0.632574 44 8 7
0.452014 -1.39748 0.674746 47 10 9
0.452014 -1.39748 0.716918 38 8 8
0.452014 -1.39748 0.759089 46 8 8
0.452014 -1.39748 0.801261 45 8 7
0.452014 -1.39748 0.843433 40 7 9
0.452014 -1.39748 0.885604 35 7 4
0.452014 -1.39748 0.927776 30 7 9
0.452014 -1.39748 0.969948 44 9 9
0.452014 -1.39748 1.01212 68 11 14
0.452014 -1.39748 1.39166 85 82 74
0.452014 -1.39748 1.43384 208 110 76
0.452014 -1.39748 1.47601 255 180 146
0.452014 -1.35531 0.379545 28 7 3
0.452014 -1.35531 0.421716 32 6 12
0.452014 -1.35531 0.463888 35 8 6
0.452014 -1.35531 0.50606 37 6 8
0.452014 -1.35531 0.548231 37 7 6
0.452014 -1.35531 0.590403 37 7 8
0.452014 -1.35531 0.632574 38 7 6
0.452014 -1.35531 0.674746 37 9 10
0.452014 -1.35531 0.716918 38 7 8
0.452014 -1.35531 0.759089 39 7 5
0.452014 -1.35531 0.801261 37 8 4
0.452014 -1.35531 0.843433 39 8 6
0.452014 -1.35531 0.885604 24 6 7
0.452014 -1.35531 0.927776 37 7 9
0.452014 -1.35531 0.969948 46 7 8
0.452014 -1.35531 1.39166 255 198 156
0.452014 -1.35531 1.43384 255 189 158
0.452014 -1.35531 1.47601 255 204 136
0.452014 -1.31313 0.337373 20 5 6
0.452014 -1.31313 0.379545 26 6 5
0.452014 -1.31313 0.421716 25 7 9
0.452014 -1.31313 0.463888 29 9 1
0.452014 -1.31313 0.50606 27 7 13
0.452014 -1.31313 0.548231 29 6 8
0.452014 -1.31313 0.590403 29 6 2
0.452014 -1.31313 0.632574 29 7 3
0.452014 -1.31313 0.674746 32 6 8
0.452014 -1.31313 0.716918 30 6 7
0.452014 -1.31313 0.759089 30 7 6
0.452014 -1.31313 0.801261 29 8 6
0.452014 -1.31313 0.843433 25 5 8
0.452014 -1.31313 0.885604 25 7 6
0.452014 -1.31313 0.927776 13 5 6
0.452014 -1.31313 1.43384 255 174 116
0.452014 -1.27096 0.295201 33 13 14
0.452014 -1.27096 0.337373 33 9 2
0.452014 -1.27096 0.379545 33 7 9
0.452014 -1.27096 0.421716 69 19 33
0.452014 -1.27096 0.463888 105 52 61
0.452014 -1.27096 0.50606 136 88 73
0.452014 -1.27096 0.548231 195 107 84
0.452014 -1.27096 0.590403 197 111 86
0.452014 -1.27096 0.632574 178 105 83
0.452014 -1.27096 0.674746 139 84 63
0.452014 -1.27096 0.716918 133 78 62
0.452014 -1.27096 0.759089 133 82 64
0.452014 -1.27096 0.801261 120 70 57
0.452014 -1.22879 0 69 50 40
0.452014 -1.22879 0.25303 205 101 80
0.452014 -1.22879 0.295201 215 114 88
0.452014 -1.22879 0.337373 213 126 103
0.452014 -1.22879 0.463888 218 127 105
0.452014 -1.22879 0.50606 223 132 100
0.452014 -1.22879 0.548231 220 134 108
0.452014 -1.22879 0.590403 219 127 101
0.452014 -1.22879 0.632574 152 88 82
0.452014 -1.22879 0.674746 90 55 47
0.452014 -1.18662 0 79 45 34
0.452014 -1.18662 0.0421716 145 64 46
0.452014 -1.18662 0.0843433 148 75 59
0.452014 -1.18662 0.463888 75 85 73
0.452014 -1.18662 0.50606 42 12 10
0.452014 -1.18662 0.548231 32 8 6
0.452014 -1.18662 0.590403 95 17 11
0.452014 -1.14445 0 46 52 40
0.452014 -1.14445 0.0421716 45 54 41
0.452014 -1.14445 0.50606 72 77 75
0.494186 -1.48182 0.801261 39 7 2
0.494186 -1.43965 0.463888 55 9 8
0.494186 -1.43965 0.548231 46 9 5
0.494186 -1.43965 0.590403 42 10 8
0.494186 -1.43965 0.632574 44 9 8
0.494186 -1.43965 0.674746 44 6 0
0.494186 -1.43965 0.716918 43 8 6
0.494186 -1.43965 0.759089 43 8 7
0.494186 -1.43965 0.801261 39 7 9
0.494186 -1.43965 0.843433 39 7 7
0.494186 -1.43965 0.885604 45 12 7
0.494186 -1.43965 0.927776 38 5 0
0.494186 -1.43965 1.43384 70 84 73
0.494186 -1.39748 0.463888 42 8 8
0.494186 -1.39748 0.50606 48 9 9
0.494186 -1.39748 0.548231 50 8 8
0.494186 -1.39748 0.590403 47 10 3
0.494186 -1.39748 0.632574 46 10 7
0.494186 -1.39748 0.674746 39 10 14
0.494186 -1.39748 0.716918 46 8 10
0.494186 -1.39748 0.759089 45 8 6
0.494186 -1.39748 0.801261 42 9 9
0.494186 -1.39748 0.843433 36 7 4
0.494186 -1.39748 0.885604 34 7 6
0.494186 -1.39748 0.927776 58 10 9
0.494186 -1.39748 1.39166 102 66 56
0.494186 -1.39748 1.43384 228 156 135
0.494186 -1.39748 1.47601 255 211 156
0.494186 -1.35531 0.379545 32 8 9
0.494186 -1.35531 0.421716 35 7 7
0.494186 -1.35531 0.463888 38 7 8
0.494186 -1.35531 0.50606 40 8 6
0.494186 -1.35531 0.548231 37 9 8
0.494186 -1.35531 0.590403 39 8 6
0.494186 -1.35531 0.632574 42 6 10
0.494186 -1.35531 0.674746 37 7 8
0.494186 -1.35531 0.716918 40 7 5
0.494186 -1.35531 0.759089 42 6 4
0.494186 -1.35531 0.801261 35 8 6
0.494186 -1.35531 0.843433 27 4 8
0.494186 -1.35531 0.885604 35 6 6
0.494186 -1.35531 1.39166 255 196 162
0.494186 -1.35531 1.43384 255 206 158
0.494186 -1.35531 1.47601 64 82 79
0.494186 -1.31313 0.295201 20 6 3
0.494186 -1.31313 0.337373 28 8 8
0.494186 -1.31313 0.379545 25 4 6
0.494186 -1.31313 0.421716 29 6 4
0.494186 -1.31313 0.463888 29 6 3
0.494186 -1.31313 0.50606 33 6 6
0.494186 -1.31313 0.548231 33 6 2
0.494186 -1.31313 0.590403 27 7 3
0.494186 -1.31313 0.632574 30 7 8
0.494186 -1.31313 0.674746 31 7 7
0.494186 -1.31313 0.716918 29 6 6
0.494186 -1.31313 0.759089 30 6 5
0.494186 -1.27096 0.25303 29 7 4
0.494186 -1.27096 0.295201 33 6 10
0.494186 -1.27096 0.337373 33 7 4
0.494186 -1.27096 0.379545 69 9 4
0.494186 -1.27096 0.421716 89 21 19
0.494186 -1.27096 0.50606 168 88 66
0.494186 -1.27096 0.548231 178 106 86
0.494186 -1.27096 0.590403 172 105 83
0.494186 -1.27096 0.632574 142 88 69
0.494186 -1.22879 0.168687 151 94 95
0.494186 -1.22879 0.210858 129 77 80
0.494186 -1.22879 0.25303 156 94 88
0.494186 -1.22879 0.295201 188 113 99
0.494186 -1.22879 0.337373 200 124 102
0.494186 -1.22879 0.379545 217 125 98
0.494186 -1.22879 0.50606 230 131 113
0.494186 -1.22879 0.548231 227 131 100
0.494186 -1.22879 0.590403 187 104 82
0.494186 -1.18662 0 151 70 55
0.494186 -1.18662 0.0421716 125 56 52
0.494186 -1.18662 0.0843433 143 63 52
0.494186 -1.18662 0.126515 177 97 89
0.494186 -1.18662 0.168687 173 119 101
0.494186 -1.18662 0.210858 166 116 92
0.494186 -1.18662 0.25303 178 108 73
0.494186 -1.18662 0.50606 48 43 38
0.494186 -1.18662 0.548231 97 29 24
0.494186 -1.14445 0 64 52 46
0.494186 -1.14445 0.0421716 62 54 55
0.494186 -1.14445 0.0843433 80 59 47
0.494186 -1.14445 0.126515 84 59 48
0.494186 -1.14445 0.168687 96 61 53
0.494186 -1.14445 0.548231 84 44 68
0.494186 -1.10228 0.126515 78 74 70
0.536358 -1.43965 1.43384 89 75 59
0.536358 -1.43965 1.47601 209 119 110
0.536358 -1.39748 1.39166 183 91 82
0.536358 -1.39748 1.43384 255 179 138
0.536358 -1.39748 1.47601 255 204 164
0.536358 -1.27096 0.548231 147 92 78
0.536358 -1.22879 0.548231 183 96 71
0.578529 -1.43965 1.43384 133 75 66
0.578529 -1.43965 1.47601 255 167 121
0.578529 -1.39748 1.43384 255 206 159
0.578529 -1.39748 1.47601 255 170 102
0.620701 -1.48182 1.47601 119 77 66
0.620701 -1.43965 1.43384 202 114 101
0.620701 -1.43965 1.47601 255 216 171
0.620701 -1.39748 1.47601 96 119 100
0.662872 -1.48182 1.47601 159 99 94
0.662872 -1.48182 1.51818 233 157 141
0.662872 -1.43965 1.47601 255 206 168
0.662872 -1.43965 1.51818 255 202 167
0.705044 -1.48182 1.47601 203 107 70
0.705044 -1.48182 1.51818 255 160 137
0.705044 -1.43965 1.47601 255 210 171
0.705044 -1.43965 1.51818 255 212 170
0.747216 -1.48182 1.51818 255 161 136
0.747216 -1.48182 1.56035 255 194 155
0.747216 -1.43965 1.51818 251 182 139
0.789387 -1.52399 1.56035 78 59 56
0.789387 -1.48182 1.51818 255 161 137
0.789387 -1.48182 1.56035 255 198 162
0.831559 -1.52399 1.56035 150 98 58
0.831559 -1.52399 1.60252 255 179 133
0.831559 -1.48182 1.56035 255 192 150
0.873731 -1.56616 1.60252 190 90 101
0.873731 -1.52399 1.56035 189 96 84
0.873731 -1.52399 1.60252 255 185 153
0.915902 -1.60834 1.60252 135 94 65
0.915902 -1.56616 1.56035 127 123 54
0.915902 -1.56616 1.60252 247 125 122
0.915902 -1.52399 1.56035 255 183 156
0.915902 -1.52399 1.60252 255 170 146
