ply
format ascii 1.0
comment Created by Open3D
element vertex 1837
property double x
property double y
property double z
end_header
0.28928 -1.44636 1.37193
0.28928 -1.43728 0.308911
0.28928 -1.43728 1.38101
0.28928 -1.42819 0.336167
0.28928 -1.42819 1.38101
0.28928 -1.41911 0.363424
0.28928 -1.41911 1.3901
0.28928 -1.41002 0.37251
0.28928 -1.41002 1.39918
0.28928 -1.40093 0.445195
0.28928 -1.40093 1.40827
0.28928 -1.39185 0.436109
0.28928 -1.39185 1.40827
0.28928 -1.38276 0.445195
0.28928 -1.38276 1.41735
0.28928 -1.37368 0.445195
0.28928 -1.37368 1.42644
0.28928 -1.36459 0.436109
0.28928 -1.36459 1.44461
0.28928 -1.35551 0.436109
0.28928 -1.35551 1.44461
0.28928 -1.34642 0.427023
0.28928 -1.34642 1.44461
0.28928 -1.33733 0.427023
0.28928 -1.33733 1.4537
0.28928 -1.32825 0.427023
0.28928 -1.32825 1.4537
0.28928 -1.31916 0.427023
0.28928 -1.31916 1.4537
0.28928 -1.31008 0.427023
0.28928 -1.31008 1.54455
0.28928 -1.30099 0.463366
0.28928 -1.30099 1.54455
0.28928 -1.29191 0.463366
0.28928 -1.29191 1.55364
0.28928 -1.28282 0.472451
0.28928 -1.28282 1.56272
0.28928 -1.27374 0.499708
0.28928 -1.27374 1.59907
0.28928 -1.26465 0.499708
0.28928 -1.26465 1.60815
0.28928 -1.25556 0.654163
0.28928 -1.25556 1.61724
0.28928 -1.24648 0.68142
0.28928 -1.24648 1.61724
0.28928 -1.23739 1.25381
0.28928 -1.23739 1.62632
0.28928 -1.22831 1.2629
0.28928 -1.22831 1.63541
0.28928 -1.21922 1.29016
0.28928 -1.21922 1.63541
0.28928 -1.21014 1.50821
0.28928 -1.21014 1.63541
0.28928 -1.20105 1.50821
0.28928 -1.20105 1.63541
0.28928 -1.19197 1.49912
0.28928 -1.19197 1.62632
0.28928 -1.18288 1.49912
0.28928 -1.18288 1.62632
0.28928 -1.17379 1.50821
0.28928 -1.17379 1.62632
0.28928 -1.16471 1.50821
0.28928 -1.16471 1.62632
0.28928 -1.15562 1.50821
0.28928 -1.15562 1.61724
0.28928 -1.14654 1.5173
0.28928 -1.14654 1.61724
0.28928 -1.13745 1.53547
0.28928 -1.13745 1.58998
0.28928 -1.12837 1.55364
0.28928 -1.12837 1.57181
0.298366 -1.60082 0.0545136
0.298366 -1.60082 0.090856
0.298366 -1.59173 0.0363424
0.298366 -1.59173 0.109027
0.298366 -1.58265 0.0181712
0.298366 -1.58265 0.154455
0.298366 -1.57356 0.0181712
0.298366 -1.57356 0.163541
0.298366 -1.56447 0.0363424
0.298366 -1.56447 1.06302
0.298366 -1.55539 0.045428
0.298366 -1.55539 1.14479
0.298366 -1.5463 0.0545136
0.298366 -1.5463 1.17204
0.298366 -1.53722 0.0545136
0.298366 -1.53722 1.24473
0.298366 -1.52813 0.181712
0.298366 -1.52813 1.27198
0.298366 -1.51905 0.181712
0.298366 -1.51905 1.31741
0.298366 -1.50996 0.218054
0.298366 -1.50996 1.3265
0.298366 -1.50088 0.218054
0.298366 -1.50088 1.3265
0.298366 -1.49179 0.245311
0.298366 -1.49179 1.3265
0.298366 -1.4827 0.245311
0.298366 -1.4827 1.34467
0.298366 -1.47362 0.272568
0.298366 -1.47362 1.35375
0.298366 -1.46453 0.281654
0.298366 -1.46453 1.36284
0.298366 -1.45545 0.299825
0.298366 -1.45545 1.36284
0.298366 -1.44636 0.317996
0.298366 -1.44636 1.37193
0.298366 -1.43728 0.336167
0.298366 -1.43728 1.38101
0.298366 -1.42819 0.336167
0.298366 -1.42819 1.38101
0.298366 -1.41911 0.45428
0.298366 -1.41911 1.3901
0.298366 -1.41002 0.45428
0.298366 -1.41002 1.39918
0.298366 -1.40093 0.45428
0.298366 -1.40093 1.40827
0.298366 -1.39185 0.45428
0.298366 -1.39185 1.41735
0.298366 -1.38276 0.45428
0.298366 -1.38276 1.42644
0.298366 -1.37368 0.445195
0.298366 -1.37368 1.43553
0.298366 -1.36459 0.445195
0.298366 -1.36459 1.44461
0.298366 -1.35551 0.436109
0.298366 -1.35551 1.44461
0.298366 -1.34642 0.436109
0.298366 -1.34642 1.44461
0.298366 -1.33733 0.436109
0.298366 -1.33733 1.4537
0.298366 -1.32825 0.427023
0.298366 -1.32825 1.4537
0.298366 -1.31916 0.427023
0.298366 -1.31916 1.4537
0.298366 -1.31008 0.436109
0.298366 -1.31008 1.4537
0.298366 -1.30099 0.436109
0.298366 -1.30099 1.50821
0.298366 -1.29191 0.436109
0.298366 -1.29191 1.54455
0.298366 -1.28282 0.472451
0.298366 -1.28282 1.55364
0.298366 -1.27374 0.481537
0.298366 -1.27374 1.58089
0.298366 -1.26465 0.481537
0.298366 -1.26465 1.59907
0.298366 -1.25556 0.508794
0.298366 -1.25556 1.60815
0.298366 -1.24648 0.654163
0.298366 -1.24648 1.61724
0.298366 -1.23739 1.25381
0.298366 -1.23739 1.61724
0.298366 -1.22831 1.27198
0.298366 -1.22831 1.62632
0.298366 -1.21922 1.29924
0.298366 -1.21922 1.63541
0.298366 -1.21014 1.50821
0.298366 -1.21014 1.63541
0.298366 -1.20105 1.50821
0.298366 -1.20105 1.63541
0.298366 -1.19197 1.50821
0.298366 -1.19197 1.62632
0.298366 -1.18288 1.49912
0.298366 -1.18288 1.62632
0.298366 -1.17379 1.50821
0.298366 -1.17379 1.62632
0.298366 -1.16471 1.50821
0.298366 -1.16471 1.62632
0.298366 -1.15562 1.5173
0.298366 -1.15562 1.61724
0.298366 -1.14654 1.53547
0.298366 -1.14654 1.59907
0.298366 -1.13745 1.55364
0.298366 -1.13745 1.58998
0.307451 -1.60082 0.0545136
0.307451 -1.60082 0.0817704
0.307451 -1.59173 0.045428
0.307451 -1.59173 0.0817704
0.307451 -1.58265 0.0363424
0.307451 -1.58265 0.090856
0.307451 -1.57356 0.045428
0.307451 -1.57356 0.0999416
0.307451 -1.56447 0.045428
0.307451 -1.56447 1.0721
0.307451 -1.55539 0.0545136
0.307451 -1.55539 1.14479
0.307451 -1.5463 0.0545136
0.307451 -1.5463 1.22656
0.307451 -1.53722 0.245311
0.307451 -1.53722 1.25381
0.307451 -1.52813 0.245311
0.307451 -1.52813 1.2629
0.307451 -1.51905 0.245311
0.307451 -1.51905 1.3265
0.307451 -1.50996 0.254397
0.307451 -1.50996 1.3265
0.307451 -1.50088 0.254397
0.307451 -1.50088 1.3265
0.307451 -1.49179 0.263482
0.307451 -1.49179 1.33558
0.307451 -1.4827 0.281654
0.307451 -1.4827 1.34467
0.307451 -1.47362 0.299825
0.307451 -1.47362 1.36284
0.307451 -1.46453 0.327082
0.307451 -1.46453 1.36284
0.307451 -1.45545 0.327082
0.307451 -1.45545 1.36284
0.307451 -1.44636 0.381595
0.307451 -1.44636 1.38101
0.307451 -1.43728 0.399767
0.307451 -1.43728 1.3901
0.307451 -1.42819 0.463366
0.307451 -1.42819 1.3901
0.307451 -1.41911 0.463366
0.307451 -1.41911 1.39918
0.307451 -1.41002 0.463366
0.307451 -1.41002 1.40827
0.307451 -1.40093 0.463366
0.307451 -1.40093 1.41735
0.307451 -1.39185 0.463366
0.307451 -1.39185 1.41735
0.307451 -1.38276 0.45428
0.307451 -1.38276 1.43553
0.307451 -1.37368 0.445195
0.307451 -1.37368 1.4537
0.307451 -1.36459 0.45428
0.307451 -1.36459 1.44461
0.307451 -1.35551 0.445195
0.307451 -1.35551 1.44461
0.307451 -1.34642 0.445195
0.307451 -1.34642 1.4537
0.307451 -1.33733 0.436109
0.307451 -1.33733 1.4537
0.307451 -1.32825 0.427023
0.307451 -1.32825 1.4537
0.307451 -1.31916 0.427023
0.307451 -1.31916 1.4537
0.307451 -1.31008 0.427023
0.307451 -1.31008 1.4537
0.307451 -1.30099 0.436109
0.307451 -1.30099 1.4537
0.307451 -1.29191 0.436109
0.307451 -1.29191 1.49004
0.307451 -1.28282 0.436109
0.307451 -1.28282 1.55364
0.307451 -1.27374 0.45428
0.307451 -1.27374 1.57181
0.307451 -1.26465 0.481537
0.307451 -1.26465 1.58998
0.307451 -1.25556 0.490623
0.307451 -1.25556 1.59907
0.307451 -1.24648 0.499708
0.307451 -1.24648 1.60815
0.307451 -1.23739 1.27198
0.307451 -1.23739 1.60815
0.307451 -1.22831 1.27198
0.307451 -1.22831 1.61724
0.307451 -1.21922 1.29924
0.307451 -1.21922 1.63541
0.307451 -1.21014 1.50821
0.307451 -1.21014 1.63541
0.307451 -1.20105 1.50821
0.307451 -1.20105 1.63541
0.307451 -1.19197 1.50821
0.307451 -1.19197 1.63541
0.307451 -1.18288 1.50821
0.307451 -1.18288 1.62632
0.307451 -1.17379 1.50821
0.307451 -1.17379 1.62632
0.307451 -1.16471 1.5173
0.307451 -1.16471 1.60815
0.307451 -1.15562 1.55364
0.307451 -1.15562 1.59907
0.307451 -1.14654 1.56272
0.307451 -1.14654 1.59907
0.307451 -1.13745 1.56272
0.307451 -1.13745 1.57181
0.316537 -1.59173 0.045428
0.316537 -1.59173 0.0635992
0.316537 -1.58265 0.045428
0.316537 -1.58265 0.0635992
0.316537 -1.57356 0.0545136
0.316537 -1.57356 0.0726848
0.316537 -1.56447 0.0545136
0.316537 -1.56447 1.11753
0.316537 -1.55539 0.963074
0.316537 -1.55539 1.1357
0.316537 -1.5463 0.481537
0.316537 -1.5463 1.15387
0.316537 -1.53722 0.299825
0.316537 -1.53722 1.24473
0.316537 -1.52813 0.299825
0.316537 -1.52813 1.25381
0.316537 -1.51905 0.308911
0.316537 -1.51905 1.31741
0.316537 -1.50996 0.308911
0.316537 -1.50996 1.3265
0.316537 -1.50088 0.317996
0.316537 -1.50088 1.33558
0.316537 -1.49179 0.317996
0.316537 -1.49179 1.33558
0.316537 -1.4827 0.327082
0.316537 -1.4827 1.35375
0.316537 -1.47362 0.327082
0.316537 -1.47362 1.36284
0.316537 -1.46453 0.390681
0.316537 -1.46453 1.37193
0.316537 -1.45545 0.390681
0.316537 -1.45545 1.37193
0.316537 -1.44636 0.472451
0.316537 -1.44636 1.38101
0.316537 -1.43728 0.472451
0.316537 -1.43728 1.3901
0.316537 -1.42819 0.472451
0.316537 -1.42819 1.3901
0.316537 -1.41911 0.481537
0.316537 -1.41911 1.40827
0.316537 -1.41002 0.472451
0.316537 -1.41002 1.41735
0.316537 -1.40093 0.463366
0.316537 -1.40093 1.41735
0.316537 -1.39185 0.463366
0.316537 -1.39185 1.42644
0.316537 -1.38276 0.463366
0.316537 -1.38276 1.43553
0.316537 -1.37368 0.463366
0.316537 -1.37368 1.46278
0.316537 -1.36459 0.45428
0.316537 -1.36459 1.4537
0.316537 -1.35551 0.445195
0.316537 -1.35551 1.4537
0.316537 -1.34642 0.427023
0.316537 -1.34642 1.4537
0.316537 -1.33733 0.427023
0.316537 -1.33733 1.4537
0.316537 -1.32825 0.427023
0.316537 -1.32825 1.4537
0.316537 -1.31916 0.427023
0.316537 -1.31916 1.4537
0.316537 -1.31008 0.427023
0.316537 -1.31008 1.4537
0.316537 -1.30099 0.436109
0.316537 -1.30099 1.4537
0.316537 -1.29191 0.445195
0.316537 -1.29191 1.4537
0.316537 -1.28282 0.445195
0.316537 -1.28282 1.46278
0.316537 -1.27374 0.445195
0.316537 -1.27374 1.57181
0.316537 -1.26465 0.445195
0.316537 -1.26465 1.58089
0.316537 -1.25556 0.481537
0.316537 -1.25556 1.58998
0.316537 -1.24648 0.490623
0.316537 -1.24648 1.59907
0.316537 -1.23739 0.654163
0.316537 -1.23739 1.60815
0.316537 -1.22831 1.29924
0.316537 -1.22831 1.60815
0.316537 -1.21922 1.5173
0.316537 -1.21922 1.61724
0.316537 -1.21014 1.50821
0.316537 -1.21014 1.62632
0.316537 -1.20105 1.50821
0.316537 -1.20105 1.63541
0.316537 -1.19197 1.50821
0.316537 -1.19197 1.63541
0.316537 -1.18288 1.50821
0.316537 -1.18288 1.63541
0.316537 -1.17379 1.56272
0.316537 -1.17379 1.60815
0.316537 -1.16471 1.55364
0.316537 -1.16471 1.59907
0.316537 -1.15562 1.57181
0.316537 -1.15562 1.58089
0.316537 -1.14654 1.56272
0.316537 -1.14654 1.57181
0.325623 -1.56447 1.02667
0.325623 -1.56447 1.10844
0.325623 -1.55539 0.990331
0.325623 -1.55539 1.12661
0.325623 -1.5463 0.481537
0.325623 -1.5463 1.15387
0.325623 -1.53722 0.445195
0.325623 -1.53722 1.23564
0.325623 -1.52813 0.308911
0.325623 -1.52813 1.24473
0.325623 -1.51905 0.317996
0.325623 -1.51905 1.29924
0.325623 -1.50996 0.317996
0.325623 -1.50996 1.30833
0.325623 -1.50088 0.327082
0.325623 -1.50088 1.3265
0.325623 -1.49179 0.327082
0.325623 -1.49179 1.34467
0.325623 -1.4827 0.390681
0.325623 -1.4827 1.35375
0.325623 -1.47362 0.390681
0.325623 -1.47362 1.37193
0.325623 -1.46453 0.408852
0.325623 -1.46453 1.37193
0.325623 -1.45545 0.481537
0.325623 -1.45545 1.38101
0.325623 -1.44636 0.490623
0.325623 -1.44636 1.3901
0.325623 -1.43728 0.481537
0.325623 -1.43728 1.39918
0.325623 -1.42819 0.481537
0.325623 -1.42819 1.39918
0.325623 -1.41911 0.481537
0.325623 -1.41911 1.40827
0.325623 -1.41002 0.472451
0.325623 -1.41002 1.42644
0.325623 -1.40093 0.472451
0.325623 -1.40093 1.42644
0.325623 -1.39185 0.472451
0.325623 -1.39185 1.42644
0.325623 -1.38276 0.463366
0.325623 -1.38276 1.44461
0.325623 -1.37368 0.463366
0.325623 -1.37368 1.46278
0.325623 -1.36459 0.45428
0.325623 -1.36459 1.46278
0.325623 -1.35551 0.436109
0.325623 -1.35551 1.46278
0.325623 -1.34642 0.417938
0.325623 -1.34642 1.4537
0.325623 -1.33733 0.427023
0.325623 -1.33733 1.46278
0.325623 -1.32825 0.427023
0.325623 -1.32825 1.4537
0.325623 -1.31916 0.427023
0.325623 -1.31916 1.4537
0.325623 -1.31008 0.436109
0.325623 -1.31008 1.4537
0.325623 -1.30099 0.436109
0.325623 -1.30099 1.4537
0.325623 -1.29191 0.436109
0.325623 -1.29191 1.4537
0.325623 -1.28282 0.445195
0.325623 -1.28282 1.4537
0.325623 -1.27374 0.445195
0.325623 -1.27374 1.54455
0.325623 -1.26465 0.445195
0.325623 -1.26465 1.57181
0.325623 -1.25556 0.445195
0.325623 -1.25556 1.58998
0.325623 -1.24648 0.445195
0.325623 -1.24648 1.59907
0.325623 -1.23739 0.490623
0.325623 -1.23739 1.59907
0.325623 -1.22831 1.30833
0.325623 -1.22831 1.60815
0.325623 -1.21922 1.5173
0.325623 -1.21922 1.61724
0.325623 -1.21014 1.5173
0.325623 -1.21014 1.62632
0.325623 -1.20105 1.5173
0.325623 -1.20105 1.62632
0.325623 -1.19197 1.53547
0.325623 -1.19197 1.61724
0.325623 -1.18288 1.56272
0.325623 -1.18288 1.59907
0.325623 -1.17379 1.57181
0.325623 -1.17379 1.58089
0.325623 -1.16471 1.57181
0.325623 -1.16471 1.58089
0.334708 -1.56447 1.01759
0.334708 -1.56447 1.01759
0.334708 -1.55539 0.981245
0.334708 -1.55539 1.11753
0.334708 -1.5463 0.944903
0.334708 -1.5463 1.1357
0.334708 -1.53722 0.481537
0.334708 -1.53722 1.21747
0.334708 -1.52813 0.317996
0.334708 -1.52813 1.24473
0.334708 -1.51905 0.327082
0.334708 -1.51905 1.2629
0.334708 -1.50996 0.327082
0.334708 -1.50996 1.29016
0.334708 -1.50088 0.408852
0.334708 -1.50088 1.30833
0.334708 -1.49179 0.381595
0.334708 -1.49179 1.33558
0.334708 -1.4827 0.390681
0.334708 -1.4827 1.36284
0.334708 -1.47362 0.490623
0.334708 -1.47362 1.37193
0.334708 -1.46453 0.490623
0.334708 -1.46453 1.38101
0.334708 -1.45545 0.499708
0.334708 -1.45545 1.38101
0.334708 -1.44636 0.499708
0.334708 -1.44636 1.3901
0.334708 -1.43728 0.490623
0.334708 -1.43728 1.40827
0.334708 -1.42819 0.490623
0.334708 -1.42819 1.40827
0.334708 -1.41911 0.481537
0.334708 -1.41911 1.41735
0.334708 -1.41002 0.481537
0.334708 -1.41002 1.42644
0.334708 -1.40093 0.481537
0.334708 -1.40093 1.42644
0.334708 -1.39185 0.472451
0.334708 -1.39185 1.44461
0.334708 -1.38276 0.472451
0.334708 -1.38276 1.44461
0.334708 -1.37368 0.445195
0.334708 -1.37368 1.47187
0.334708 -1.36459 0.445195
0.334708 -1.36459 1.48095
0.334708 -1.35551 0.417938
0.334708 -1.35551 1.46278
0.334708 -1.34642 0.417938
0.334708 -1.34642 1.46278
0.334708 -1.33733 0.427023
0.334708 -1.33733 1.47187
0.334708 -1.32825 0.427023
0.334708 -1.32825 1.46278
0.334708 -1.31916 0.436109
0.334708 -1.31916 1.46278
0.334708 -1.31008 0.436109
0.334708 -1.31008 1.4537
0.334708 -1.30099 0.436109
0.334708 -1.30099 1.4537
0.334708 -1.29191 0.436109
0.334708 -1.29191 1.4537
0.334708 -1.28282 0.436109
0.334708 -1.28282 1.4537
0.334708 -1.27374 0.445195
0.334708 -1.27374 1.4537
0.334708 -1.26465 0.445195
0.334708 -1.26465 1.56272
0.334708 -1.25556 0.445195
0.334708 -1.25556 1.57181
0.334708 -1.24648 0.445195
0.334708 -1.24648 1.58998
0.334708 -1.23739 0.45428
0.334708 -1.23739 1.58998
0.334708 -1.22831 0.490623
0.334708 -1.22831 1.59907
0.334708 -1.21922 1.52638
0.334708 -1.21922 1.59907
0.334708 -1.21014 1.5173
0.334708 -1.21014 1.59907
0.334708 -1.20105 1.57181
0.334708 -1.20105 1.59907
0.334708 -1.19197 1.58089
0.334708 -1.19197 1.58089
0.334708 -1.18288 1.58089
0.334708 -1.18288 1.58089
0.343794 -1.55539 0.981245
0.343794 -1.55539 1.09936
0.343794 -1.5463 0.953988
0.343794 -1.5463 1.12661
0.343794 -1.53722 0.935817
0.343794 -1.53722 1.1993
0.343794 -1.52813 0.445195
0.343794 -1.52813 1.21747
0.343794 -1.51905 0.436109
0.343794 -1.51905 1.24473
0.343794 -1.50996 0.427023
0.343794 -1.50996 1.28107
0.343794 -1.50088 0.417938
0.343794 -1.50088 1.30833
0.343794 -1.49179 0.445195
0.343794 -1.49179 1.33558
0.343794 -1.4827 0.508794
0.343794 -1.4827 1.35375
0.343794 -1.47362 0.508794
0.343794 -1.47362 1.36284
0.343794 -1.46453 0.499708
0.343794 -1.46453 1.37193
0.343794 -1.45545 0.508794
0.343794 -1.45545 1.38101
0.343794 -1.44636 0.499708
0.343794 -1.44636 1.3901
0.343794 -1.43728 0.499708
0.343794 -1.43728 1.39918
0.343794 -1.42819 0.490623
0.343794 -1.42819 1.41735
0.343794 -1.41911 0.490623
0.343794 -1.41911 1.41735
0.343794 -1.41002 0.490623
0.343794 -1.41002 1.43553
0.343794 -1.40093 0.481537
0.343794 -1.40093 1.43553
0.343794 -1.39185 0.472451
0.343794 -1.39185 1.44461
0.343794 -1.38276 0.45428
0.343794 -1.38276 1.4537
0.343794 -1.37368 0.436109
0.343794 -1.37368 1.47187
0.343794 -1.36459 0.417938
0.343794 -1.36459 1.48095
0.343794 -1.35551 0.417938
0.343794 -1.35551 1.48095
0.343794 -1.34642 0.427023
0.343794 -1.34642 1.46278
0.343794 -1.33733 0.427023
0.343794 -1.33733 1.47187
0.343794 -1.32825 0.427023
0.343794 -1.32825 1.47187
0.343794 -1.31916 0.436109
0.343794 -1.31916 1.47187
0.343794 -1.31008 0.436109
0.343794 -1.31008 1.46278
0.343794 -1.30099 0.436109
0.343794 -1.30099 1.4537
0.343794 -1.29191 0.436109
0.343794 -1.29191 1.4537
0.343794 -1.28282 0.436109
0.343794 -1.28282 1.4537
0.343794 -1.27374 0.445195
0.343794 -1.27374 1.4537
0.343794 -1.26465 0.445195
0.343794 -1.26465 1.55364
0.343794 -1.25556 0.45428
0.343794 -1.25556 1.56272
0.343794 -1.24648 0.45428
0.343794 -1.24648 1.58089
0.343794 -1.23739 0.45428
0.343794 -1.23739 1.58089
0.343794 -1.22831 0.45428
0.343794 -1.22831 1.58089
0.343794 -1.21922 0.490623
0.343794 -1.21922 1.58089
0.343794 -1.21014 1.57181
0.343794 -1.21014 1.58089
0.343794 -1.20105 1.58089
0.343794 -1.20105 1.58089
0.352879 -1.55539 0.990331
0.352879 -1.55539 0.999416
0.352879 -1.5463 0.963074
0.352879 -1.5463 1.12661
0.352879 -1.53722 0.917646
0.352879 -1.53722 1.19021
0.352879 -1.52813 0.490623
0.352879 -1.52813 1.1993
0.352879 -1.51905 0.436109
0.352879 -1.51905 1.22656
0.352879 -1.50996 0.436109
0.352879 -1.50996 1.28107
0.352879 -1.50088 0.517879
0.352879 -1.50088 1.29016
0.352879 -1.49179 0.517879
0.352879 -1.49179 1.31741
0.352879 -1.4827 0.517879
0.352879 -1.4827 1.33558
0.352879 -1.47362 0.517879
0.352879 -1.47362 1.35375
0.352879 -1.46453 0.517879
0.352879 -1.46453 1.36284
0.352879 -1.45545 0.508794
0.352879 -1.45545 1.37193
0.352879 -1.44636 0.499708
0.352879 -1.44636 1.38101
0.352879 -1.43728 0.508794
0.352879 -1.43728 1.39918
0.352879 -1.42819 0.499708
0.352879 -1.42819 1.40827
0.352879 -1.41911 0.490623
0.352879 -1.41911 1.42644
0.352879 -1.41002 0.490623
0.352879 -1.41002 1.43553
0.352879 -1.40093 0.472451
0.352879 -1.40093 1.43553
0.352879 -1.39185 0.445195
0.352879 -1.39185 1.4537
0.352879 -1.38276 0.445195
0.352879 -1.38276 1.46278
0.352879 -1.37368 0.417938
0.352879 -1.37368 1.47187
0.352879 -1.36459 0.417938
0.352879 -1.36459 1.47187
0.352879 -1.35551 0.427023
0.352879 -1.35551 1.47187
0.352879 -1.34642 0.427023
0.352879 -1.34642 1.47187
0.352879 -1.33733 0.427023
0.352879 -1.33733 1.47187
0.352879 -1.32825 0.427023
0.352879 -1.32825 1.47187
0.352879 -1.31916 0.427023
0.352879 -1.31916 1.47187
0.352879 -1.31008 0.436109
0.352879 -1.31008 1.46278
0.352879 -1.30099 0.436109
0.352879 -1.30099 1.46278
0.352879 -1.29191 0.436109
0.352879 -1.29191 1.4537
0.352879 -1.28282 0.436109
0.352879 -1.28282 1.4537
0.352879 -1.27374 0.445195
0.352879 -1.27374 1.4537
0.352879 -1.26465 0.445195
0.352879 -1.26465 1.4537
0.352879 -1.25556 0.45428
0.352879 -1.25556 1.4537
0.352879 -1.24648 0.45428
0.352879 -1.24648 1.44461
0.352879 -1.23739 0.45428
0.352879 -1.23739 1.44461
0.352879 -1.22831 0.45428
0.352879 -1.22831 1.3265
0.352879 -1.21922 0.490623
0.352879 -1.21922 0.563307
0.361965 -1.5463 0.963074
0.361965 -1.5463 0.999416
0.361965 -1.53722 0.926732
0.361965 -1.53722 1.1357
0.361965 -1.52813 0.863132
0.361965 -1.52813 1.1993
0.361965 -1.51905 0.472451
0.361965 -1.51905 1.1993
0.361965 -1.50996 0.526965
0.361965 -1.50996 1.24473
0.361965 -1.50088 0.526965
0.361965 -1.50088 1.28107
0.361965 -1.49179 0.526965
0.361965 -1.49179 1.29016
0.361965 -1.4827 0.526965
0.361965 -1.4827 1.31741
0.361965 -1.47362 0.517879
0.361965 -1.47362 1.34467
0.361965 -1.46453 0.517879
0.361965 -1.46453 1.35375
0.361965 -1.45545 0.508794
0.361965 -1.45545 1.36284
0.361965 -1.44636 0.508794
0.361965 -1.44636 1.37193
0.361965 -1.43728 0.508794
0.361965 -1.43728 1.3901
0.361965 -1.42819 0.499708
0.361965 -1.42819 1.39918
0.361965 -1.41911 0.481537
0.361965 -1.41911 1.42644
0.361965 -1.41002 0.472451
0.361965 -1.41002 1.44461
0.361965 -1.40093 0.45428
0.361965 -1.40093 1.44461
0.361965 -1.39185 0.436109
0.361965 -1.39185 1.4537
0.361965 -1.38276 0.417938
0.361965 -1.38276 1.46278
0.361965 -1.37368 0.417938
0.361965 -1.37368 1.47187
0.361965 -1.36459 0.417938
0.361965 -1.36459 1.47187
0.361965 -1.35551 0.427023
0.361965 -1.35551 1.47187
0.361965 -1.34642 0.427023
0.361965 -1.34642 1.47187
0.361965 -1.33733 0.427023
0.361965 -1.33733 1.48095
0.361965 -1.32825 0.427023
0.361965 -1.32825 1.47187
0.361965 -1.31916 0.427023
0.361965 -1.31916 1.47187
0.361965 -1.31008 0.436109
0.361965 -1.31008 1.47187
0.361965 -1.30099 0.436109
0.361965 -1.30099 1.46278
0.361965 -1.29191 0.445195
0.361965 -1.29191 1.46278
0.361965 -1.28282 0.445195
0.361965 -1.28282 1.4537
0.361965 -1.27374 0.445195
0.361965 -1.27374 1.4537
0.361965 -1.26465 0.445195
0.361965 -1.26465 1.4537
0.361965 -1.25556 0.445195
0.361965 -1.25556 1.4537
0.361965 -1.24648 0.445195
0.361965 -1.24648 1.44461
0.361965 -1.23739 0.45428
0.361965 -1.23739 1.43553
0.361965 -1.22831 0.472451
0.361965 -1.22831 0.654163
0.361965 -1.21922 0.526965
0.361965 -1.21922 0.608735
0.371051 -1.5463 0.97216
0.371051 -1.5463 0.97216
0.371051 -1.53722 0.926732
0.371051 -1.53722 1.0721
0.371051 -1.52813 0.863132
0.371051 -1.52813 1.17204
0.371051 -1.51905 0.754105
0.371051 -1.51905 1.19021
0.371051 -1.50996 0.572393
0.371051 -1.50996 1.22656
0.371051 -1.50088 0.536051
0.371051 -1.50088 1.23564
0.371051 -1.49179 0.536051
0.371051 -1.49179 1.28107
0.371051 -1.4827 0.526965
0.371051 -1.4827 1.30833
0.371051 -1.47362 0.526965
0.371051 -1.47362 1.3265
0.371051 -1.46453 0.526965
0.371051 -1.46453 1.34467
0.371051 -1.45545 0.517879
0.371051 -1.45545 1.35375
0.371051 -1.44636 0.517879
0.371051 -1.44636 1.36284
0.371051 -1.43728 0.508794
0.371051 -1.43728 1.37193
0.371051 -1.42819 0.490623
0.371051 -1.42819 1.3901
0.371051 -1.41911 0.472451
0.371051 -1.41911 1.39918
0.371051 -1.41002 0.445195
0.371051 -1.41002 1.43553
0.371051 -1.40093 0.445195
0.371051 -1.40093 1.4537
0.371051 -1.39185 0.417938
0.371051 -1.39185 1.46278
0.371051 -1.38276 0.417938
0.371051 -1.38276 1.47187
0.371051 -1.37368 0.417938
0.371051 -1.37368 1.47187
0.371051 -1.36459 0.417938
0.371051 -1.36459 1.47187
0.371051 -1.35551 0.417938
0.371051 -1.35551 1.47187
0.371051 -1.34642 0.427023
0.371051 -1.34642 1.48095
0.371051 -1.33733 0.427023
0.371051 -1.33733 1.48095
0.371051 -1.32825 0.427023
0.371051 -1.32825 1.47187
0.371051 -1.31916 0.427023
0.371051 -1.31916 1.47187
0.371051 -1.31008 0.436109
0.371051 -1.31008 1.47187
0.371051 -1.30099 0.436109
0.371051 -1.30099 1.46278
0.371051 -1.29191 0.445195
0.371051 -1.29191 1.46278
0.371051 -1.28282 0.445195
0.371051 -1.28282 1.4537
0.371051 -1.27374 0.436109
0.371051 -1.27374 1.4537
0.371051 -1.26465 0.445195
0.371051 -1.26465 1.4537
0.371051 -1.25556 0.445195
0.371051 -1.25556 1.4537
0.371051 -1.24648 0.45428
0.371051 -1.24648 1.4537
0.371051 -1.23739 0.45428
0.371051 -1.23739 1.40827
0.371051 -1.22831 0.472451
0.371051 -1.22831 0.654163
0.371051 -1.21922 0.526965
0.371051 -1.21922 0.617821
0.371051 -1.21014 0.59965
0.371051 -1.21014 0.608735
0.380136 -1.53722 0.935817
0.380136 -1.53722 0.990331
0.380136 -1.52813 0.872218
0.380136 -1.52813 1.15387
0.380136 -1.51905 0.745019
0.380136 -1.51905 1.16296
0.380136 -1.50996 0.563307
0.380136 -1.50996 1.1993
0.380136 -1.50088 0.545136
0.380136 -1.50088 1.22656
0.380136 -1.49179 0.536051
0.380136 -1.49179 1.23564
0.380136 -1.4827 0.536051
0.380136 -1.4827 1.28107
0.380136 -1.47362 0.536051
0.380136 -1.47362 1.31741
0.380136 -1.46453 0.526965
0.380136 -1.46453 1.33558
0.380136 -1.45545 0.526965
0.380136 -1.45545 1.34467
0.380136 -1.44636 0.499708
0.380136 -1.44636 1.35375
0.380136 -1.43728 0.499708
0.380136 -1.43728 1.37193
0.380136 -1.42819 0.472451
0.380136 -1.42819 1.38101
0.380136 -1.41911 0.45428
0.380136 -1.41911 1.3901
0.380136 -1.41002 0.436109
0.380136 -1.41002 1.42644
0.380136 -1.40093 0.417938
0.380136 -1.40093 1.4537
0.380136 -1.39185 0.417938
0.380136 -1.39185 1.47187
0.380136 -1.38276 0.417938
0.380136 -1.38276 1.47187
0.380136 -1.37368 0.417938
0.380136 -1.37368 1.48095
0.380136 -1.36459 0.417938
0.380136 -1.36459 1.48095
0.380136 -1.35551 0.417938
0.380136 -1.35551 1.48095
0.380136 -1.34642 0.417938
0.380136 -1.34642 1.48095
0.380136 -1.33733 0.427023
0.380136 -1.33733 1.48095
0.380136 -1.32825 0.436109
0.380136 -1.32825 1.47187
0.380136 -1.31916 0.436109
0.380136 -1.31916 1.47187
0.380136 -1.31008 0.436109
0.380136 -1.31008 1.47187
0.380136 -1.30099 0.436109
0.380136 -1.30099 1.47187
0.380136 -1.29191 0.436109
0.380136 -1.29191 1.46278
0.380136 -1.28282 0.436109
0.380136 -1.28282 1.46278
0.380136 -1.27374 0.436109
0.380136 -1.27374 1.4537
0.380136 -1.26465 0.445195
0.380136 -1.26465 1.4537
0.380136 -1.25556 0.445195
0.380136 -1.25556 1.4537
0.380136 -1.24648 0.45428
0.380136 -1.24648 1.4537
0.380136 -1.23739 0.45428
0.380136 -1.23739 1.3901
0.380136 -1.22831 0.463366
0.380136 -1.22831 0.663249
0.380136 -1.21922 0.526965
0.380136 -1.21922 0.626907
0.380136 -1.21014 0.563307
0.380136 -1.21014 0.59965
0.389222 -1.53722 0.944903
0.389222 -1.53722 0.944903
0.389222 -1.52813 0.872218
0.389222 -1.52813 0.990331
0.389222 -1.51905 0.735934
0.389222 -1.51905 1.15387
0.389222 -1.50996 0.554222
0.389222 -1.50996 1.19021
0.389222 -1.50088 0.545136
0.389222 -1.50088 1.1993
0.389222 -1.49179 0.545136
0.389222 -1.49179 1.22656
0.389222 -1.4827 0.545136
0.389222 -1.4827 1.27198
0.389222 -1.47362 0.536051
0.389222 -1.47362 1.29016
0.389222 -1.46453 0.526965
0.389222 -1.46453 1.31741
0.389222 -1.45545 0.508794
0.389222 -1.45545 1.33558
0.389222 -1.44636 0.490623
0.389222 -1.44636 1.35375
0.389222 -1.43728 0.472451
0.389222 -1.43728 1.35375
0.389222 -1.42819 0.445195
0.389222 -1.42819 1.38101
0.389222 -1.41911 0.445195
0.389222 -1.41911 1.3901
0.389222 -1.41002 0.417938
0.389222 -1.41002 1.41735
0.389222 -1.40093 0.408852
0.389222 -1.40093 1.44461
0.389222 -1.39185 0.408852
0.389222 -1.39185 1.47187
0.389222 -1.38276 0.417938
0.389222 -1.38276 1.47187
0.389222 -1.37368 0.417938
0.389222 -1.37368 1.48095
0.389222 -1.36459 0.417938
0.389222 -1.36459 1.48095
0.389222 -1.35551 0.417938
0.389222 -1.35551 1.48095
0.389222 -1.34642 0.427023
0.389222 -1.34642 1.48095
0.389222 -1.33733 0.427023
0.389222 -1.33733 1.48095
0.389222 -1.32825 0.436109
0.389222 -1.32825 1.48095
0.389222 -1.31916 0.436109
0.389222 -1.31916 1.47187
0.389222 -1.31008 0.427023
0.389222 -1.31008 1.47187
0.389222 -1.30099 0.427023
0.389222 -1.30099 1.47187
0.389222 -1.29191 0.427023
0.389222 -1.29191 1.46278
0.389222 -1.28282 0.436109
0.389222 -1.28282 1.46278
0.389222 -1.27374 0.436109
0.389222 -1.27374 1.46278
0.389222 -1.26465 0.445195
0.389222 -1.26465 1.4537
0.389222 -1.25556 0.445195
0.389222 -1.25556 1.44461
0.389222 -1.24648 0.45428
0.389222 -1.24648 1.44461
0.389222 -1.23739 0.45428
0.389222 -1.23739 1.37193
0.389222 -1.22831 0.463366
0.389222 -1.22831 0.672335
0.389222 -1.21922 0.490623
0.389222 -1.21922 0.626907
0.389222 -1.21014 0
0.389222 -1.21014 0.590564
0.389222 -1.20105 0
0.389222 -1.20105 0.0090856
0.389222 -1.19197 0
0.389222 -1.19197 0.0090856
0.389222 -1.18288 0
0.389222 -1.18288 0.0090856
0.398307 -1.52813 0.881303
0.398307 -1.52813 0.963074
0.398307 -1.51905 0.726848
0.398307 -1.51905 0.990331
0.398307 -1.50996 0.572393
0.398307 -1.50996 1.16296
0.398307 -1.50088 0.554222
0.398307 -1.50088 1.19021
0.398307 -1.49179 0.545136
0.398307 -1.49179 1.1993
0.398307 -1.4827 0.545136
0.398307 -1.4827 1.23564
0.398307 -1.47362 0.526965
0.398307 -1.47362 1.27198
0.398307 -1.46453 0.499708
0.398307 -1.46453 1.29016
0.398307 -1.45545 0.499708
0.398307 -1.45545 1.29016
0.398307 -1.44636 0.472451
0.398307 -1.44636 1.31741
0.398307 -1.43728 0.45428
0.398307 -1.43728 1.33558
0.398307 -1.42819 0.436109
0.398307 -1.42819 1.35375
0.398307 -1.41911 0.417938
0.398307 -1.41911 1.38101
0.398307 -1.41002 0.417938
0.398307 -1.41002 1.41735
0.398307 -1.40093 0.408852
0.398307 -1.40093 1.43553
0.398307 -1.39185 0.408852
0.398307 -1.39185 1.46278
0.398307 -1.38276 0.408852
0.398307 -1.38276 1.47187
0.398307 -1.37368 0.417938
0.398307 -1.37368 1.48095
0.398307 -1.36459 0.427023
0.398307 -1.36459 1.48095
0.398307 -1.35551 0.427023
0.398307 -1.35551 1.48095
0.398307 -1.34642 0.427023
0.398307 -1.34642 1.48095
0.398307 -1.33733 0.417938
0.398307 -1.33733 1.48095
0.398307 -1.32825 0.427023
0.398307 -1.32825 1.48095
0.398307 -1.31916 0.417938
0.398307 -1.31916 1.47187
0.398307 -1.31008 0.417938
0.398307 -1.31008 1.47187
0.398307 -1.30099 0.427023
0.398307 -1.30099 1.47187
0.398307 -1.29191 0.427023
0.398307 -1.29191 1.47187
0.398307 -1.28282 0.436109
0.398307 -1.28282 1.46278
0.398307 -1.27374 0.436109
0.398307 -1.27374 1.46278
0.398307 -1.26465 0.445195
0.398307 -1.26465 1.4537
0.398307 -1.25556 0.445195
0.398307 -1.25556 1.44461
0.398307 -1.24648 0.45428
0.398307 -1.24648 1.44461
0.398307 -1.23739 0.45428
0.398307 -1.23739 0.690506
0.398307 -1.22831 0.463366
0.398307 -1.22831 0.645078
0.398307 -1.21922 0
0.398307 -1.21922 0.635992
0.398307 -1.21014 0
0.398307 -1.21014 0.590564
0.398307 -1.20105 0
0.398307 -1.20105 0.581479
0.398307 -1.19197 0
0.398307 -1.19197 0.0181712
0.398307 -1.18288 0
0.398307 -1.18288 0.0181712
0.398307 -1.17379 0
0.398307 -1.17379 0.0181712
0.407393 -1.52813 0.808619
0.407393 -1.52813 0.917646
0.407393 -1.51905 0.745019
0.407393 -1.51905 0.963074
0.407393 -1.50996 0.708677
0.407393 -1.50996 1.11753
0.407393 -1.50088 0.572393
0.407393 -1.50088 1.16296
0.407393 -1.49179 0.554222
0.407393 -1.49179 1.19021
0.407393 -1.4827 0.526965
0.407393 -1.4827 1.21747
0.407393 -1.47362 0.508794
0.407393 -1.47362 1.22656
0.407393 -1.46453 0.490623
0.407393 -1.46453 1.25381
0.407393 -1.45545 0.472451
0.407393 -1.45545 1.27198
0.407393 -1.44636 0.445195
0.407393 -1.44636 1.29016
0.407393 -1.43728 0.445195
0.407393 -1.43728 1.31741
0.407393 -1.42819 0.427023
0.407393 -1.42819 1.35375
0.407393 -1.41911 0.417938
0.407393 -1.41911 1.37193
0.407393 -1.41002 0.408852
0.407393 -1.41002 1.3901
0.407393 -1.40093 0.408852
0.407393 -1.40093 1.43553
0.407393 -1.39185 0.408852
0.407393 -1.39185 1.46278
0.407393 -1.38276 0.417938
0.407393 -1.38276 1.48095
0.407393 -1.37368 0.417938
0.407393 -1.37368 1.48095
0.407393 -1.36459 0.427023
0.407393 -1.36459 1.48095
0.407393 -1.35551 0.417938
0.407393 -1.35551 1.48095
0.407393 -1.34642 0.417938
0.407393 -1.34642 1.48095
0.407393 -1.33733 0.417938
0.407393 -1.33733 1.48095
0.407393 -1.32825 0.417938
0.407393 -1.32825 1.48095
0.407393 -1.31916 0.399767
0.407393 -1.31916 1.48095
0.407393 -1.31008 0.399767
0.407393 -1.31008 1.47187
0.407393 -1.30099 0.381595
0.407393 -1.30099 1.47187
0.407393 -1.29191 0.37251
0.407393 -1.29191 1.46278
0.407393 -1.28282 0.381595
0.407393 -1.28282 1.46278
0.407393 -1.27374 0.381595
0.407393 -1.27374 1.4537
0.407393 -1.26465 0.390681
0.407393 -1.26465 1.44461
0.407393 -1.25556 0.390681
0.407393 -1.25556 1.44461
0.407393 -1.24648 0.417938
0.407393 -1.24648 1.43553
0.407393 -1.23739 0.408852
0.407393 -1.23739 0.690506
0.407393 -1.22831 0.0090856
0.407393 -1.22831 0.645078
0.407393 -1.21922 0
0.407393 -1.21922 0.635992
0.407393 -1.21014 0
0.407393 -1.21014 0.59965
0.407393 -1.20105 0
0.407393 -1.20105 0.581479
0.407393 -1.19197 0
0.407393 -1.19197 0.572393
0.407393 -1.18288 0
0.407393 -1.18288 0.563307
0.407393 -1.17379 0
0.407393 -1.17379 0.545136
0.407393 -1.16471 0
0.407393 -1.16471 0.0272568
0.416479 -1.52813 0.799533
0.416479 -1.52813 0.90856
0.416479 -1.51905 0.735934
0.416479 -1.51905 0.917646
0.416479 -1.50996 0.708677
0.416479 -1.50996 0.990331
0.416479 -1.50088 0.690506
0.416479 -1.50088 1.14479
0.416479 -1.49179 0.526965
0.416479 -1.49179 1.16296
0.416479 -1.4827 0.499708
0.416479 -1.4827 1.19021
0.416479 -1.47362 0.499708
0.416479 -1.47362 1.20839
0.416479 -1.46453 0.481537
0.416479 -1.46453 1.22656
0.416479 -1.45545 0.45428
0.416479 -1.45545 1.2629
0.416479 -1.44636 0.445195
0.416479 -1.44636 1.29016
0.416479 -1.43728 0.427023
0.416479 -1.43728 1.30833
0.416479 -1.42819 0.427023
0.416479 -1.42819 1.33558
0.416479 -1.41911 0.417938
0.416479 -1.41911 1.36284
0.416479 -1.41002 0.408852
0.416479 -1.41002 1.38101
0.416479 -1.40093 0.417938
0.416479 -1.40093 1.44461
0.416479 -1.39185 0.417938
0.416479 -1.39185 1.47187
0.416479 -1.38276 0.417938
0.416479 -1.38276 1.48095
0.416479 -1.37368 0.408852
0.416479 -1.37368 1.48095
0.416479 -1.36459 0.417938
0.416479 -1.36459 1.48095
0.416479 -1.35551 0.408852
0.416479 -1.35551 1.48095
0.416479 -1.34642 0.408852
0.416479 -1.34642 1.48095
0.416479 -1.33733 0.390681
0.416479 -1.33733 1.48095
0.416479 -1.32825 0.390681
0.416479 -1.32825 1.48095
0.416479 -1.31916 0.37251
0.416479 -1.31916 1.48095
0.416479 -1.31008 0.354339
0.416479 -1.31008 1.47187
0.416479 -1.30099 0.354339
0.416479 -1.30099 1.46278
0.416479 -1.29191 0.345253
0.416479 -1.29191 1.4537
0.416479 -1.28282 0.354339
0.416479 -1.28282 1.44461
0.416479 -1.27374 0.363424
0.416479 -1.27374 1.44461
0.416479 -1.26465 0.363424
0.416479 -1.26465 1.44461
0.416479 -1.25556 0.37251
0.416479 -1.25556 1.43553
0.416479 -1.24648 0.37251
0.416479 -1.24648 1.42644
0.416479 -1.23739 0.417938
0.416479 -1.23739 0.690506
0.416479 -1.22831 0.417938
0.416479 -1.22831 0.654163
0.416479 -1.21922 0
0.416479 -1.21922 0.645078
0.416479 -1.21014 0
0.416479 -1.21014 0.608735
0.416479 -1.20105 0
0.416479 -1.20105 0.590564
0.416479 -1.19197 0
0.416479 -1.19197 0.581479
0.416479 -1.18288 0
0.416479 -1.18288 0.563307
0.416479 -1.17379 0
0.416479 -1.17379 0.554222
0.416479 -1.16471 0
0.416479 -1.16471 0.536051
0.416479 -1.15562 0
0.416479 -1.15562 0.0272568
0.425564 -1.52813 0.790447
0.425564 -1.52813 0.82679
0.425564 -1.51905 0.726848
0.425564 -1.51905 0.90856
0.425564 -1.50996 0.699591
0.425564 -1.50996 0.963074
0.425564 -1.50088 0.68142
0.425564 -1.50088 0.981245
0.425564 -1.49179 0.508794
0.425564 -1.49179 1.08119
0.425564 -1.4827 0.490623
0.425564 -1.4827 1.16296
0.425564 -1.47362 0.472451
0.425564 -1.47362 1.19021
0.425564 -1.46453 0.45428
0.425564 -1.46453 1.19021
0.425564 -1.45545 0.45428
0.425564 -1.45545 1.23564
0.425564 -1.44636 0.436109
0.425564 -1.44636 1.2629
0.425564 -1.43728 0.436109
0.425564 -1.43728 1.29924
0.425564 -1.42819 0.417938
0.425564 -1.42819 1.29924
0.425564 -1.41911 0.417938
0.425564 -1.41911 1.34467
0.425564 -1.41002 0.408852
0.425564 -1.41002 1.43553
0.425564 -1.40093 0.417938
0.425564 -1.40093 1.46278
0.425564 -1.39185 0.408852
0.425564 -1.39185 1.47187
0.425564 -1.38276 0.408852
0.425564 -1.38276 1.48095
0.425564 -1.37368 0.399767
0.425564 -1.37368 1.48095
0.425564 -1.36459 0.408852
0.425564 -1.36459 1.48095
0.425564 -1.35551 0.381595
0.425564 -1.35551 1.48095
0.425564 -1.34642 0.390681
0.425564 -1.34642 1.48095
0.425564 -1.33733 0.363424
0.425564 -1.33733 1.48095
0.425564 -1.32825 0.354339
0.425564 -1.32825 1.48095
0.425564 -1.31916 0.354339
0.425564 -1.31916 1.47187
0.425564 -1.31008 0.345253
0.425564 -1.31008 1.47187
0.425564 -1.30099 0.345253
0.425564 -1.30099 1.46278
0.425564 -1.29191 0.327082
0.425564 -1.29191 1.38101
0.425564 -1.28282 0.327082
0.425564 -1.28282 1.38101
0.425564 -1.27374 0.327082
0.425564 -1.27374 1.38101
0.425564 -1.26465 0.299825
0.425564 -1.26465 1.38101
0.425564 -1.25556 0.308911
0.425564 -1.25556 0.745019
0.425564 -1.24648 0.308911
0.425564 -1.24648 0.708677
0.425564 -1.23739 0.354339
0.425564 -1.23739 0.699591
0.425564 -1.22831 0
0.425564 -1.22831 0.663249
0.425564 -1.21922 0
0.425564 -1.21922 0.626907
0.425564 -1.21014 0
0.425564 -1.21014 0.608735
0.425564 -1.20105 0
0.425564 -1.20105 0.59965
0.425564 -1.19197 0
0.425564 -1.19197 0.581479
0.425564 -1.18288 0
0.425564 -1.18288 0.572393
0.425564 -1.17379 0
0.425564 -1.17379 0.554222
0.425564 -1.16471 0
0.425564 -1.16471 0.545136
0.425564 -1.15562 0
0.425564 -1.15562 0.536051
0.425564 -1.14654 0
0.425564 -1.14654 0.0272568
0.43465 -1.52813 0.781362
0.43465 -1.52813 0.835875
0.43465 -1.51905 0.717763
0.43465 -1.51905 0.835875
0.43465 -1.50996 0.699591
0.43465 -1.50996 0.90856
0.43465 -1.50088 0.672335
0.43465 -1.50088 0.953988
0.43465 -1.49179 0.499708
0.43465 -1.49179 0.981245
0.43465 -1.4827 0.481537
0.43465 -1.4827 1.05393
0.43465 -1.47362 0.472451
0.43465 -1.47362 1.10844
0.43465 -1.46453 0.45428
0.43465 -1.46453 1.17204
0.43465 -1.45545 0.445195
0.43465 -1.45545 1.1993
0.43465 -1.44636 0.445195
0.43465 -1.44636 1.1993
0.43465 -1.43728 0.427023
0.43465 -1.43728 1.23564
0.43465 -1.42819 0.417938
0.43465 -1.42819 1.27198
0.43465 -1.41911 0.417938
0.43465 -1.41911 1.34467
0.43465 -1.41002 0.408852
0.43465 -1.41002 1.44461
0.43465 -1.40093 0.408852
0.43465 -1.40093 1.47187
0.43465 -1.39185 0.399767
0.43465 -1.39185 1.48095
0.43465 -1.38276 0.399767
0.43465 -1.38276 1.48095
0.43465 -1.37368 0.381595
0.43465 -1.37368 1.48095
0.43465 -1.36459 0.381595
0.43465 -1.36459 1.48095
0.43465 -1.35551 0.37251
0.43465 -1.35551 1.48095
0.43465 -1.34642 0.363424
0.43465 -1.34642 1.48095
0.43465 -1.33733 0.354339
0.43465 -1.33733 1.48095
0.43465 -1.32825 0.336167
0.43465 -1.32825 1.48095
0.43465 -1.31916 0.345253
0.43465 -1.31916 1.47187
0.43465 -1.31008 0.317996
0.43465 -1.31008 1.46278
0.43465 -1.30099 0.327082
0.43465 -1.30099 1.4537
0.43465 -1.29191 0.317996
0.43465 -1.29191 0.917646
0.43465 -1.28282 0.299825
0.43465 -1.28282 0.90856
0.43465 -1.27374 0.299825
0.43465 -1.27374 0.890389
0.43465 -1.26465 0.299825
0.43465 -1.26465 0.763191
0.43465 -1.25556 0.299825
0.43465 -1.25556 0.754105
0.43465 -1.24648 0.290739
0.43465 -1.24648 0.717763
0.43465 -1.23739 0.290739
0.43465 -1.23739 0.708677
0.43465 -1.22831 0
0.43465 -1.22831 0.663249
0.43465 -1.21922 0
0.43465 -1.21922 0.626907
0.43465 -1.21014 0
0.43465 -1.21014 0.617821
0.43465 -1.20105 0
0.43465 -1.20105 0.608735
0.43465 -1.19197 0
0.43465 -1.19197 0.590564
0.43465 -1.18288 0
0.43465 -1.18288 0.581479
0.43465 -1.17379 0
0.43465 -1.17379 0.563307
0.43465 -1.16471 0
0.43465 -1.16471 0.554222
0.43465 -1.15562 0
0.43465 -1.15562 0.545136
0.43465 -1.14654 0
0.43465 -1.14654 0.045428
0.443735 -1.52813 0.781362
0.443735 -1.52813 0.799533
0.443735 -1.51905 0.726848
0.443735 -1.51905 0.835875
0.443735 -1.50996 0.699591
0.443735 -1.50996 0.90856
0.443735 -1.50088 0.690506
0.443735 -1.50088 0.90856
0.443735 -1.49179 0.626907
0.443735 -1.49179 0.953988
0.443735 -1.4827 0.472451
0.443735 -1.4827 1.02667
0.443735 -1.47362 0.472451
0.443735 -1.47362 1.06302
0.443735 -1.46453 0.463366
0.443735 -1.46453 1.06302
0.443735 -1.45545 0.445195
0.443735 -1.45545 1.10844
0.443735 -1.44636 0.436109
0.443735 -1.44636 1.14479
0.443735 -1.43728 0.436109
0.443735 -1.43728 1.14479
0.443735 -1.42819 0.427023
0.443735 -1.42819 1.14479
0.443735 -1.41911 0.408852
0.443735 -1.41911 1.15387
0.443735 -1.41002 0.408852
0.443735 -1.41002 1.47187
0.443735 -1.40093 0.399767
0.443735 -1.40093 1.47187
0.443735 -1.39185 0.390681
0.443735 -1.39185 1.48095
0.443735 -1.38276 0.390681
0.443735 -1.38276 1.48095
0.443735 -1.37368 0.381595
0.443735 -1.37368 1.48095
0.443735 -1.36459 0.381595
0.443735 -1.36459 1.48095
0.443735 -1.35551 0.363424
0.443735 -1.35551 1.48095
0.443735 -1.34642 0.363424
0.443735 -1.34642 1.48095
0.443735 -1.33733 0.345253
0.443735 -1.33733 1.47187
0.443735 -1.32825 0.336167
0.443735 -1.32825 1.47187
0.443735 -1.31916 0.317996
0.443735 -1.31916 1.47187
0.443735 -1.31008 0.317996
0.443735 -1.31008 1.4537
0.443735 -1.30099 0.299825
0.443735 -1.30099 0.917646
0.443735 -1.29191 0.299825
0.443735 -1.29191 0.917646
0.443735 -1.28282 0.290739
0.443735 -1.28282 0.899475
0.443735 -1.27374 0.290739
0.443735 -1.27374 0.881303
0.443735 -1.26465 0.272568
0.443735 -1.26465 0.772276
0.443735 -1.25556 0.263482
0.443735 -1.25556 0.763191
0.443735 -1.24648 0.272568
0.443735 -1.24648 0.726848
0.443735 -1.23739 0.236226
0.443735 -1.23739 0.68142
0.443735 -1.22831 0
0.443735 -1.22831 0.672335
0.443735 -1.21922 0
0.443735 -1.21922 0.626907
0.443735 -1.21014 0
0.443735 -1.21014 0.617821
0.443735 -1.20105 0
0.443735 -1.20105 0.608735
0.443735 -1.19197 0
0.443735 -1.19197 0.59965
0.443735 -1.18288 0
0.443735 -1.18288 0.590564
0.443735 -1.17379 0
0.443735 -1.17379 0.572393
0.443735 -1.16471 0
0.443735 -1.16471 0.563307
0.443735 -1.15562 0
0.443735 -1.15562 0.545136
0.443735 -1.14654 0
0.443735 -1.14654 0.526965
0.443735 -1.13745 0.526965
0.443735 -1.13745 0.526965
0.452821 -1.52813 0.790447
0.452821 -1.52813 0.790447
0.452821 -1.51905 0.735934
0.452821 -1.51905 0.790447
0.452821 -1.50996 0.708677
0.452821 -1.50996 0.835875
0.452821 -1.50088 0.699591
0.452821 -1.50088 0.899475
0.452821 -1.49179 0.654163
0.452821 -1.49179 0.90856
0.452821 -1.4827 0.626907
0.452821 -1.4827 0.981245
0.452821 -1.47362 0.472451
0.452821 -1.47362 1.0085
0.452821 -1.46453 0.463366
0.452821 -1.46453 1.05393
0.452821 -1.45545 0.463366
0.452821 -1.45545 1.06302
0.452821 -1.44636 0.436109
0.452821 -1.44636 1.0721
0.452821 -1.43728 0.436109
0.452821 -1.43728 1.0721
0.452821 -1.42819 0.427023
0.452821 -1.42819 1.0721
0.452821 -1.41911 0.417938
0.452821 -1.41911 1.44461
0.452821 -1.41002 0.408852
0.452821 -1.41002 1.47187
0.452821 -1.40093 0.399767
0.452821 -1.40093 1.47187
0.452821 -1.39185 0.399767
0.452821 -1.39185 1.48095
0.452821 -1.38276 0.390681
0.452821 -1.38276 1.48095
0.452821 -1.37368 0.390681
0.452821 -1.37368 1.48095
0.452821 -1.36459 0.37251
0.452821 -1.36459 1.48095
0.452821 -1.35551 0.363424
0.452821 -1.35551 1.48095
0.452821 -1.34642 0.345253
0.452821 -1.34642 1.48095
0.452821 -1.33733 0.345253
0.452821 -1.33733 1.48095
0.452821 -1.32825 0.327082
0.452821 -1.32825 1.47187
0.452821 -1.31916 0.317996
0.452821 -1.31916 1.46278
0.452821 -1.31008 0.308911
0.452821 -1.31008 1.4537
0.452821 -1.30099 0.290739
0.452821 -1.30099 0.90856
0.452821 -1.29191 0.290739
0.452821 -1.29191 0.890389
0.452821 -1.28282 0.263482
0.452821 -1.28282 0.854047
0.452821 -1.27374 0.272568
0.452821 -1.27374 0.854047
0.452821 -1.26465 0.263482
0.452821 -1.26465 0.772276
0.452821 -1.25556 0.236226
0.452821 -1.25556 0.763191
0.452821 -1.24648 0.236226
0.452821 -1.24648 0.726848
0.452821 -1.23739 0.22714
0.452821 -1.23739 0.68142
0.452821 -1.22831 0
0.452821 -1.22831 0.672335
0.452821 -1.21922 0
0.452821 -1.21922 0.635992
0.452821 -1.21014 0
0.452821 -1.21014 0.617821
0.452821 -1.20105 0
0.452821 -1.20105 0.617821
0.452821 -1.19197 0
0.452821 -1.19197 0.608735
0.452821 -1.18288 0
0.452821 -1.18288 0.590564
0.452821 -1.17379 0
0.452821 -1.17379 0.581479
0.452821 -1.16471 0
0.452821 -1.16471 0.563307
0.452821 -1.15562 0
0.452821 -1.15562 0.554222
0.452821 -1.14654 0
0.452821 -1.14654 0.536051
0.452821 -1.13745 0.508794
0.452821 -1.13745 0.526965
0.461907 -1.51905 0.781362
0.461907 -1.51905 0.790447
0.461907 -1.50996 0.717763
0.461907 -1.50996 0.82679
0.461907 -1.50088 0.699591
0.461907 -1.50088 0.835875
0.461907 -1.49179 0.699591
0.461907 -1.49179 0.899475
0.461907 -1.4827 0.654163
0.461907 -1.4827 0.944903
0.461907 -1.47362 0.626907
0.461907 -1.47362 0.981245
0.461907 -1.46453 0.463366
0.461907 -1.46453 1.0085
0.461907 -1.45545 0.463366
0.461907 -1.45545 1.01759
0.461907 -1.44636 0.45428
0.461907 -1.44636 1.01759
0.461907 -1.43728 0.436109
0.461907 -1.43728 1.02667
0.461907 -1.42819 0.427023
0.461907 -1.42819 1.03576
0.461907 -1.41911 0.417938
0.461907 -1.41911 1.47187
0.461907 -1.41002 0.408852
0.461907 -1.41002 1.47187
0.461907 -1.40093 0.408852
0.461907 -1.40093 1.47187
0.461907 -1.39185 0.408852
0.461907 -1.39185 1.48095
0.461907 -1.38276 0.390681
0.461907 -1.38276 1.48095
0.461907 -1.37368 0.37251
0.461907 -1.37368 1.48095
0.461907 -1.36459 0.363424
0.461907 -1.36459 1.48095
0.461907 -1.35551 0.354339
0.461907 -1.35551 1.48095
0.461907 -1.34642 0.345253
0.461907 -1.34642 1.47187
0.461907 -1.33733 0.327082
0.461907 -1.33733 1.47187
0.461907 -1.32825 0.317996
0.461907 -1.32825 1.46278
0.461907 -1.31916 0.308911
0.461907 -1.31916 1.46278
0.461907 -1.31008 0.290739
0.461907 -1.31008 0.90856
0.461907 -1.30099 0.290739
0.461907 -1.30099 0.899475
0.461907 -1.29191 0.272568
0.461907 -1.29191 0.863132
0.461907 -1.28282 0.263482
0.461907 -1.28282 0.844961
0.461907 -1.27374 0.254397
0.461907 -1.27374 0.790447
0.461907 -1.26465 0.245311
0.461907 -1.26465 0.781362
0.461907 -1.25556 0.22714
0.461907 -1.25556 0.745019
0.461907 -1.24648 0.22714
0.461907 -1.24648 0.717763
0.461907 -1.23739 0.208969
0.461907 -1.23739 0.690506
0.461907 -1.22831 0.0090856
0.461907 -1.22831 0.68142
0.461907 -1.21922 0
0.461907 -1.21922 0.635992
0.461907 -1.21014 0
0.461907 -1.21014 0.626907
0.461907 -1.20105 0
0.461907 -1.20105 0.617821
0.461907 -1.19197 0
0.461907 -1.19197 0.608735
0.461907 -1.18288 0
0.461907 -1.18288 0.59965
0.461907 -1.17379 0
0.461907 -1.17379 0.581479
0.461907 -1.16471 0
0.461907 -1.16471 0.572393
0.461907 -1.15562 0
0.461907 -1.15562 0.563307
0.461907 -1.14654 0
0.461907 -1.14654 0.545136
0.461907 -1.13745 0.0999416
0.461907 -1.13745 0.536051
0.461907 -1.12837 0.0999416
0.461907 -1.12837 0.526965
0.470992 -1.50996 0.735934
0.470992 -1.50996 0.790447
0.470992 -1.50088 0.717763
0.470992 -1.50088 0.82679
0.470992 -1.49179 0.699591
0.470992 -1.49179 0.82679
0.470992 -1.4827 0.690506
0.470992 -1.4827 0.899475
0.470992 -1.47362 0.645078
0.470992 -1.47362 0.953988
0.470992 -1.46453 0.463366
0.470992 -1.46453 0.953988
0.470992 -1.45545 0.463366
0.470992 -1.45545 0.981245
0.470992 -1.44636 0.463366
0.470992 -1.44636 0.981245
0.470992 -1.43728 0.445195
0.470992 -1.43728 0.981245
0.470992 -1.42819 0.436109
0.470992 -1.42819 1.44461
0.470992 -1.41911 0.417938
0.470992 -1.41911 1.47187
0.470992 -1.41002 0.417938
0.470992 -1.41002 1.48095
0.470992 -1.40093 0.417938
0.470992 -1.40093 1.48095
0.470992 -1.39185 0.417938
0.470992 -1.39185 1.48095
0.470992 -1.38276 0.399767
0.470992 -1.38276 1.48095
0.470992 -1.37368 0.37251
0.470992 -1.37368 1.48095
0.470992 -1.36459 0.363424
0.470992 -1.36459 1.48095
0.470992 -1.35551 0.354339
0.470992 -1.35551 1.48095
0.470992 -1.34642 0.345253
0.470992 -1.34642 1.47187
0.470992 -1.33733 0.317996
0.470992 -1.33733 1.46278
0.470992 -1.32825 0.317996
0.470992 -1.32825 1.46278
0.470992 -1.31916 0.299825
0.470992 -1.31916 1.46278
0.470992 -1.31008 0.290739
0.470992 -1.31008 0.872218
0.470992 -1.30099 0.272568
0.470992 -1.30099 0.863132
0.470992 -1.29191 0.272568
0.470992 -1.29191 0.854047
0.470992 -1.28282 0.254397
0.470992 -1.28282 0.799533
0.470992 -1.27374 0.245311
0.470992 -1.27374 0.763191
0.470992 -1.26465 0.236226
0.470992 -1.26465 0.735934
0.470992 -1.25556 0.22714
0.470992 -1.25556 0.708677
0.470992 -1.24648 0.199883
0.470992 -1.24648 0.699591
0.470992 -1.23739 0.190798
0.470992 -1.23739 0.672335
0.470992 -1.22831 0.0090856
0.470992 -1.22831 0.645078
0.470992 -1.21922 0
0.470992 -1.21922 0.645078
0.470992 -1.21014 0
0.470992 -1.21014 0.626907
0.470992 -1.20105 0
0.470992 -1.20105 0.617821
0.470992 -1.19197 0
0.470992 -1.19197 0.608735
0.470992 -1.18288 0
0.470992 -1.18288 0.590564
0.470992 -1.17379 0
0.470992 -1.17379 0.590564
0.470992 -1.16471 0
0.470992 -1.16471 0.581479
0.470992 -1.15562 0
0.470992 -1.15562 0.563307
0.470992 -1.14654 0
0.470992 -1.14654 0.545136
0.470992 -1.13745 0
0.470992 -1.13745 0.545136
0.470992 -1.12837 0.090856
0.470992 -1.12837 0.526965
0.470992 -1.11928 0.118113
0.470992 -1.11928 0.517879
0.480078 -1.50996 0.781362
0.480078 -1.50996 0.781362
0.480078 -1.50088 0.735934
0.480078 -1.50088 0.790447
0.480078 -1.49179 0.717763
0.480078 -1.49179 0.82679
0.480078 -1.4827 0.690506
0.480078 -1.4827 0.881303
0.480078 -1.47362 0.68142
0.480078 -1.47362 0.890389
0.480078 -1.46453 0.617821
0.480078 -1.46453 0.935817
0.480078 -1.45545 0.472451
0.480078 -1.45545 0.953988
0.480078 -1.44636 0.463366
0.480078 -1.44636 0.963074
0.480078 -1.43728 0.45428
0.480078 -1.43728 0.97216
0.480078 -1.42819 0.436109
0.480078 -1.42819 1.44461
0.480078 -1.41911 0.427023
0.480078 -1.41911 1.47187
0.480078 -1.41002 0.427023
0.480078 -1.41002 1.48095
0.480078 -1.40093 0.427023
0.480078 -1.40093 1.48095
0.480078 -1.39185 0.417938
0.480078 -1.39185 1.48095
0.480078 -1.38276 0.408852
0.480078 -1.38276 1.48095
0.480078 -1.37368 0.381595
0.480078 -1.37368 1.48095
0.480078 -1.36459 0.363424
0.480078 -1.36459 1.48095
0.480078 -1.35551 0.354339
0.480078 -1.35551 1.47187
0.480078 -1.34642 0.327082
0.480078 -1.34642 1.47187
0.480078 -1.33733 0.317996
0.480078 -1.33733 1.47187
0.480078 -1.32825 0.308911
0.480078 -1.32825 1.4537
0.480078 -1.31916 0.299825
0.480078 -1.31916 0.863132
0.480078 -1.31008 0.281654
0.480078 -1.31008 0.863132
0.480078 -1.30099 0.272568
0.480078 -1.30099 0.808619
0.480078 -1.29191 0.263482
0.480078 -1.29191 0.781362
0.480078 -1.28282 0.254397
0.480078 -1.28282 0.745019
