ply
format ascii 1.0
comment Created by Open3D
element vertex 286
property double x
property double y
property double z
end_header
-0.264903 -1.35531 0.843433
-0.222732 -1.35531 0.843433
-0.222732 -1.35531 0.885604
-0.222732 -1.31313 0.885604
-0.222732 -1.31313 0.885604
-0.18056 -1.35531 0.885604
-0.18056 -1.35531 0.885604
-0.18056 -1.31313 0.843433
-0.18056 -1.31313 0.885604
-0.138389 -1.35531 0.885604
-0.138389 -1.35531 0.885604
-0.138389 -1.31313 0.885604
-0.138389 -1.31313 0.927776
-0.0962169 -1.31313 0.927776
-0.0962169 -1.31313 0.927776
-0.0540453 -1.35531 0.927776
-0.0540453 -1.35531 0.927776
-0.0540453 -1.31313 0.927776
-0.0540453 -1.31313 0.969948
-0.0118736 -1.35531 0.969948
-0.0118736 -1.35531 0.969948
-0.0118736 -1.31313 0.969948
-0.0118736 -1.31313 0.969948
0.030298 -1.35531 0.969948
0.030298 -1.35531 1.01212
0.030298 -1.31313 0.969948
0.030298 -1.31313 1.01212
0.030298 -1.27096 1.01212
0.030298 -1.27096 1.01212
0.0724696 -1.35531 1.01212
0.0724696 -1.35531 1.05429
0.0724696 -1.31313 1.01212
0.0724696 -1.31313 1.51818
0.0724696 -1.27096 1.09646
0.0724696 -1.27096 1.56035
0.0724696 -1.22879 1.51818
0.0724696 -1.22879 1.60252
0.0724696 -1.18662 1.60252
0.0724696 -1.18662 1.60252
0.114641 -1.43965 1.09646
0.114641 -1.43965 1.09646
0.114641 -1.39748 1.13863
0.114641 -1.39748 1.13863
0.114641 -1.35531 1.13863
0.114641 -1.35531 1.26515
0.114641 -1.31313 1.05429
0.114641 -1.31313 1.56035
0.114641 -1.27096 1.05429
0.114641 -1.27096 1.60252
0.114641 -1.22879 1.18081
0.114641 -1.22879 1.64469
0.114641 -1.18662 1.51818
0.114641 -1.18662 1.60252
0.114641 -1.14445 1.56035
0.114641 -1.14445 1.56035
0.156813 -1.60834 0
0.156813 -1.60834 0.0421716
0.156813 -1.48182 1.05429
0.156813 -1.48182 1.09646
0.156813 -1.43965 1.05429
0.156813 -1.43965 1.26515
0.156813 -1.39748 0.674746
0.156813 -1.39748 1.30732
0.156813 -1.35531 0.759089
0.156813 -1.35531 1.30732
0.156813 -1.31313 1.13863
0.156813 -1.31313 1.60252
0.156813 -1.27096 1.09646
0.156813 -1.27096 1.64469
0.156813 -1.22879 1.18081
0.156813 -1.22879 1.64469
0.156813 -1.18662 1.47601
0.156813 -1.18662 1.60252
0.156813 -1.14445 1.51818
0.156813 -1.14445 1.60252
0.198985 -1.65051 0.0421716
0.198985 -1.65051 0.0421716
0.198985 -1.60834 0
0.198985 -1.60834 0.0421716
0.198985 -1.56616 0
0.198985 -1.56616 0
0.198985 -1.52399 1.09646
0.198985 -1.52399 1.13863
0.198985 -1.48182 0.421716
0.198985 -1.48182 1.26515
0.198985 -1.43965 0.463888
0.198985 -1.43965 1.30732
0.198985 -1.39748 0.548231
0.198985 -1.39748 1.34949
0.198985 -1.35531 0.674746
0.198985 -1.35531 1.34949
0.198985 -1.31313 0.759089
0.198985 -1.31313 1.60252
0.198985 -1.27096 1.18081
0.198985 -1.27096 1.64469
0.198985 -1.22879 1.18081
0.198985 -1.22879 1.64469
0.198985 -1.18662 1.47601
0.198985 -1.18662 1.60252
0.198985 -1.14445 1.47601
0.198985 -1.14445 1.60252
0.241156 -1.60834 0
0.241156 -1.60834 0.126515
0.241156 -1.56616 0
0.241156 -1.56616 0.463888
0.241156 -1.52399 0.210858
0.241156 -1.52399 1.22298
0.241156 -1.48182 0.295201
0.241156 -1.48182 1.30732
0.241156 -1.43965 0.379545
0.241156 -1.43965 1.30732
0.241156 -1.39748 0.421716
0.241156 -1.39748 1.34949
0.241156 -1.35531 0.463888
0.241156 -1.35531 1.43384
0.241156 -1.31313 0.674746
0.241156 -1.31313 1.56035
0.241156 -1.27096 0.759089
0.241156 -1.27096 1.60252
0.241156 -1.22879 1.22298
0.241156 -1.22879 1.60252
0.241156 -1.18662 1.51818
0.241156 -1.18662 1.60252
0.241156 -1.14445 1.51818
0.241156 -1.14445 1.60252
0.283328 -1.60834 0.0843433
0.283328 -1.60834 0.0843433
0.283328 -1.56616 0.0421716
0.283328 -1.56616 1.05429
0.283328 -1.52399 0.168687
0.283328 -1.52399 1.30732
0.283328 -1.48182 0.25303
0.283328 -1.48182 1.30732
0.283328 -1.43965 0.295201
0.283328 -1.43965 1.34949
0.283328 -1.39748 0.463888
0.283328 -1.39748 1.39166
0.283328 -1.35531 0.463888
0.283328 -1.35531 1.43384
0.283328 -1.31313 0.463888
0.283328 -1.31313 1.47601
0.283328 -1.27096 0.50606
0.283328 -1.27096 1.60252
0.283328 -1.22879 1.26515
0.283328 -1.22879 1.60252
0.283328 -1.18662 1.51818
0.283328 -1.18662 1.60252
0.283328 -1.14445 1.51818
0.283328 -1.14445 1.60252
0.325499 -1.52399 0.463888
0.325499 -1.52399 1.22298
0.325499 -1.48182 0.421716
0.325499 -1.48182 1.34949
0.325499 -1.43965 0.50606
0.325499 -1.43965 1.39166
0.325499 -1.39748 0.50606
0.325499 -1.39748 1.39166
0.325499 -1.35531 0.463888
0.325499 -1.35531 1.43384
0.325499 -1.31313 0.463888
0.325499 -1.31313 1.43384
0.325499 -1.27096 0.463888
0.325499 -1.27096 1.56035
0.325499 -1.22879 1.30732
0.325499 -1.22879 1.60252
0.325499 -1.18662 1.60252
0.325499 -1.18662 1.60252
0.367671 -1.52399 0.885604
0.367671 -1.52399 1.18081
0.367671 -1.48182 0.548231
0.367671 -1.48182 1.30732
0.367671 -1.43965 0.50606
0.367671 -1.43965 1.34949
0.367671 -1.39748 0.463888
0.367671 -1.39748 1.43384
0.367671 -1.35531 0.421716
0.367671 -1.35531 1.47601
0.367671 -1.31313 0.463888
0.367671 -1.31313 1.43384
0.367671 -1.27096 0.463888
0.367671 -1.27096 1.43384
0.367671 -1.22879 0.463888
0.367671 -1.22879 0.632574
0.409843 -1.52399 0.759089
0.409843 -1.52399 0.885604
0.409843 -1.48182 0.548231
0.409843 -1.48182 1.18081
0.409843 -1.43965 0.463888
0.409843 -1.43965 1.30732
0.409843 -1.39748 0.421716
0.409843 -1.39748 1.43384
0.409843 -1.35531 0.421716
0.409843 -1.35531 1.47601
0.409843 -1.31313 0.379545
0.409843 -1.31313 1.47601
0.409843 -1.27096 0.379545
0.409843 -1.27096 1.43384
0.409843 -1.22879 0
0.409843 -1.22879 0.632574
0.409843 -1.18662 0
0.409843 -1.18662 0.548231
0.452014 -1.48182 0.632574
0.452014 -1.48182 0.969948
0.452014 -1.43965 0.463888
0.452014 -1.43965 1.05429
0.452014 -1.39748 0.421716
0.452014 -1.39748 1.47601
0.452014 -1.35531 0.379545
0.452014 -1.35531 1.47601
0.452014 -1.31313 0.337373
0.452014 -1.31313 1.43384
0.452014 -1.27096 0.295201
0.452014 -1.27096 0.801261
0.452014 -1.22879 0
0.452014 -1.22879 0.674746
0.452014 -1.18662 0
0.452014 -1.18662 0.590403
0.452014 -1.14445 0
0.452014 -1.14445 0.50606
0.494186 -1.48182 0.801261
0.494186 -1.48182 0.801261
0.494186 -1.43965 0.463888
0.494186 -1.43965 1.43384
0.494186 -1.39748 0.463888
0.494186 -1.39748 1.47601
0.494186 -1.35531 0.379545
0.494186 -1.35531 1.47601
0.494186 -1.31313 0.295201
0.494186 -1.31313 0.759089
0.494186 -1.27096 0.25303
0.494186 -1.27096 0.632574
0.494186 -1.22879 0.168687
0.494186 -1.22879 0.590403
0.494186 -1.18662 0
0.494186 -1.18662 0.548231
0.494186 -1.14445 0
0.494186 -1.14445 0.548231
0.494186 -1.10228 0.126515
0.494186 -1.10228 0.126515
0.536358 -1.43965 1.43384
0.536358 -1.43965 1.47601
0.536358 -1.39748 1.39166
0.536358 -1.39748 1.47601
0.536358 -1.27096 0.548231
0.536358 -1.27096 0.548231
0.536358 -1.22879 0.548231
0.536358 -1.22879 0.548231
0.578529 -1.43965 1.43384
0.578529 -1.43965 1.47601
0.578529 -1.39748 1.43384
0.578529 -1.39748 1.47601
0.620701 -1.48182 1.47601
0.620701 -1.48182 1.47601
0.620701 -1.43965 1.43384
0.620701 -1.43965 1.47601
0.620701 -1.39748 1.47601
0.620701 -1.39748 1.47601
0.662872 -1.48182 1.47601
0.662872 -1.48182 1.51818
0.662872 -1.43965 1.47601
0.662872 -1.43965 1.51818
0.705044 -1.48182 1.47601
0.705044 -1.48182 1.51818
0.705044 -1.43965 1.47601
0.705044 -1.43965 1.51818
0.747216 -1.48182 1.51818
0.747216 -1.48182 1.56035
0.747216 -1.43965 1.51818
0.747216 -1.43965 1.51818
0.789387 -1.52399 1.56035
0.789387 -1.52399 1.56035
0.789387 -1.48182 1.51818
0.789387 -1.48182 1.56035
0.831559 -1.52399 1.56035
0.831559 -1.52399 1.60252
0.831559 -1.48182 1.56035
0.831559 -1.48182 1.56035
0.873731 -1.56616 1.60252
0.873731 -1.56616 1.60252
0.873731 -1.52399 1.56035
0.873731 -1.52399 1.60252
0.915902 -1.60834 1.60252
0.915902 -1.60834 1.60252
0.915902 -1.56616 1.56035
0.915902 -1.56616 1.60252
0.915902 -1.52399 1.56035
